ply
format ascii 1.0
element vertex 1282
property float x
property float y
property float z
property uchar red
property uchar green
property uchar blue
end_header
-23.364 -22.8612 35.0742 255 255 255
-13.3118 0.818332 29.7384 255 255 255
-9.41334 -29.8431 43.3243 255 255 255
-5.58616 -12.2666 39.6202 255 255 255
0.872577 -39.5272 37.2093 255 255 255
-12.6489 -14.2846 37.1125 255 255 255
-24.9378 -60.3046 38.1172 255 255 255
-0.729605 -23.0448 40.7392 255 255 255
-27.367 -60.3538 37.3688 255 255 255
-45.191 55.3129 -58.4365 255 255 255
-15.6613 63.3313 -72.54 255 255 255
-34.3374 57.4906 -64.5408 255 255 255
-16.6601 61.0601 -73.8827 255 255 255
-72.9424 48.4255 -44.9818 255 255 255
-8.38413 -24.4761 40.2178 255 255 255
-30.4509 6.82803 -46.8241 255 255 255
-42.36 15.3664 -58.4792 255 255 255
-10.1345 65.0498 -74.7413 255 255 255
0.746065 67.7081 -79.4179 255 255 255
-28.9394 -1.52102 7.38954 255 255 255
-12.9537 -6.02327 34.9606 255 255 255
57.1334 5.48455 -12.1504 255 255 255
-4.06388 -7.55626 39.024 255 255 255
-4.06388 -7.55626 39.024 255 255 255
-10.6244 -23.4337 40.0386 255 255 255
-33.2317 -59.6159 37.128 255 255 255
-33.6489 -59.6074 37.1817 255 255 255
-26.429 -60.7825 38.7932 255 255 255
-5.48072 -4.75053 37.412 255 255 255
59.2942 3.84273 -7.72095 255 255 255
-7.77526 -1.43065 34.4964 255 255 255
-8.39816 -47.9963 37.0138 255 255 255
-13.0775 -15.6418 36.5763 255 255 255
-5.56732 -18.5512 39.1459 255 255 255
-19.0498 -3.88996 28.1389 255 255 255
-35.451 -53.1367 29.1145 255 255 255
-29.3247 -18.5188 29.4546 255 255 255
-10.9264 -25.1598 38.9723 255 255 255
-13.351 -11.7594 36.4563 255 255 255
3.20586 -23.8534 41.1238 255 255 255
-12.4141 -28.4523 42.1224 255 255 255
0.759758 -5.54268 38.2299 255 255 255
-31.3407 -58.8204 36.2871 255 255 255
23.6517 -20.8564 31.6033 255 255 255
-64.0693 49.1985 -52.3729 255 255 255
-17.6741 63.5116 -71.0564 255 255 255
-7.35544 -28.9336 42.5136 255 255 255
-13.1854 -14.1443 36.7265 255 255 255
66.7707 -25.2678 -6.08646 255 255 255
-4.62577 -38.6539 37.5619 255 255 255
3.45201 -10.9468 39.4581 255 255 255
-48.0376 -7.25292 -29.4723 255 255 255
-30.5048 53.1069 -70.3986 255 255 255
-32.2889 54.3072 -68.4686 255 255 255
-33.9282 58.4125 -64.044 255 255 255
-37.7742 61.1313 -59.6794 255 255 255
-41.7171 59.7309 -58.0038 255 255 255
-11.5846 64.6737 -74.2831 255 255 255
-55.7074 35.4703 -67.286 255 255 255
-55.3537 36.7654 -66.5309 255 255 255
-9.03468 71.3749 -70.4262 255 255 255
-31.849 41.4408 -78.7395 255 255 255
20.1887 80.1047 -83.3302 255 255 255
71.6932 90.8967 -107.987 255 255 255
-14.6503 -17.8526 35.4953 255 255 255
-11.6853 1.99062 29.4792 255 255 255
24.588 -19.8801 30.3465 255 255 255
-28.6555 -1.9106 7.92843 255 255 255
-29.0937 -56.6523 33.668 255 255 255
66.0893 -15.4962 -3.82096 255 255 255
-33.8056 -54.0316 30.327 255 255 255
-46.1064 -38.2341 10.1131 255 255 255
-5.54482 -62.1617 39.8024 255 255 255
-2.84924 -39.6578 36.8635 255 255 255
55.6676 84.4941 -102.54 255 255 255
-4.92528 -16.8594 39.6542 255 255 255
-7.35294 -43.5147 35.4504 255 255 255
64.4153 -11.0888 -4.76542 255 255 255
56.617 14.0759 -7.94008 255 255 255
61.3251 -6.06082 -9.25135 255 255 255
-20.0768 -26.0865 39.3073 255 255 255
-21.2594 -3.45978 24.1808 255 255 255
59.3735 -1.49521 -11.7434 255 255 255
59.9662 -5.54068 -12.7634 255 255 255
58.1407 2.15102 -11.9562 255 255 255
12.9515 53.6811 -98.7497 255 255 255
-55.326 53.2864 -53.9463 255 255 255
-4.27534 71.3499 -74.0163 255 255 255
-35.0705 39.6173 -77.9682 255 255 255
32.3234 42.9409 -92.2394 255 255 255
-0.957475 75.2818 -73.4331 255 255 255
40.1498 72.817 -101.497 255 255 255
-47.7907 -12.6243 -22.6573 255 255 255
-13.5649 70.2814 -70.0608 255 255 255
-11.4324 66.1599 -73.1626 255 255 255
-3.223 54.6489 -85.838 255 255 255
-30.9967 25.0797 -70.0826 255 255 255
-8.28534 30.4562 -76.4441 255 255 255
4.64834 -9.30955 38.8002 255 255 255
-33.5275 26.9432 -71.8918 255 255 255
53.8521 10.9673 -50.8472 255 255 255
-51.1174 -27.1343 -3.91019 255 255 255
-9.24944 -22.7158 40.4297 255 255 255
-36.5488 17.9084 -60.7671 255 255 255
-2.91914 -21.9509 38.9865 255 255 255
25.2348 -21.8771 32.6836 255 255 255
-51.4101 -27.7445 -3.2776 255 255 255
-40.9528 16.202 -58.8582 255 255 255
8.60636 -1.93732 32.5874 255 255 255
-21.4519 63.1138 -70.7952 255 255 255
-79.4078 18.0662 -62.3839 255 255 255
-42.563 16.2231 -58.432 255 255 255
-73.2417 50.6377 -44.6358 255 255 255
-49.1343 -7.63277 -28.3024 255 255 255
-25.9283 -6.76962 20.023 255 255 255
-15.8566 60.0513 -74.9009 255 255 255
-117.095 -9.53177 -26.8106 255 255 255
-54.7804 -4.12059 -33.1959 255 255 255
-36.3711 18.5855 -61.4978 255 255 255
8.78129 -21.7049 38.6002 255 255 255
-63.7198 17.1946 -60.0374 255 255 255
-26.3164 28.7559 -73.984 255 255 255
15.2703 -3.12716 28.6002 255 255 255
-16.2176 20.1649 -63.095 255 255 255
68.0926 -24.5346 -3.05091 255 255 255
16.2635 -25.3144 37.4494 255 255 255
25.105 -15.7208 25.3447 255 255 255
8.09686 30.0617 -76.1708 255 255 255
-70.8846 -7.64456 -28.7987 255 255 255
26.047 -18.6051 28.6044 255 255 255
4.69137 -22.1381 39.6086 255 255 255
39.3291 -49.0964 24.1239 255 255 255
-8.20054 -22.1255 39.8245 255 255 255
-4.26268 -3.30218 36.5433 255 255 255
27.2174 51.774 -102.835 255 255 255
2.58548 -5.81082 37.6836 255 255 255
-28.6104 -4.46278 11.1891 255 255 255
26.7486 49.899 -100.725 255 255 255
1.7813 -3.00799 36.4226 255 255 255
45.4756 46.4186 -96.0921 255 255 255
-14.4895 -3.74241 32.4381 255 255 255
-13.2215 -35.7637 36.5528 255 255 255
-25.8559 -10.5598 24.9252 255 255 255
-14.0661 -20.5729 37.6559 255 255 255
-25.2758 21.4698 -65.3843 255 255 255
-44.9994 12.5317 -54.2563 255 255 255
-7.68099 -3.80162 36.3242 255 255 255
44.8303 47.5617 -98.7405 255 255 255
-29.168 27.7699 -72.4268 255 255 255
-27.8393 22.6401 -66.5442 255 255 255
5.26584 -35.3284 40.1459 255 255 255
-31.9988 -59.3305 37.0649 255 255 255
14.0012 -4.74312 32.3491 255 255 255
-2.45033 -22.7075 40.4109 255 255 255
-40.3549 -54.6321 30.664 255 255 255
16.773 -3.82785 28.1658 255 255 255
-30.9938 -58.1479 35.6193 255 255 255
-79.1855 3.80498 -44.0805 255 255 255
32.5408 47.5 -96.9154 255 255 255
-57.1842 -5.96401 -32.1618 255 255 255
1.84117 -22.0119 39.467 255 255 255
-17.7407 -2.40505 28.5988 255 255 255
63.326 -48.6229 25.0353 255 255 255
-31.494 20.5702 -64.4126 255 255 255
-25.2716 2.21255 2.4089 255 255 255
-24.1569 17.375 -59.8338 255 255 255
-29.9098 22.4577 -66.1822 255 255 255
15.9712 -26.5394 39.0072 255 255 255
-29.7024 -59.8686 36.3137 255 255 255
-12.2307 4.76384 25.0647 255 255 255
-2.14101 -62.0473 39.1193 255 255 255
-1.51908 -29.1702 42.8379 255 255 255
23.2626 -8.21845 20.9139 255 255 255
0.593995 -28.3678 41.6814 255 255 255
-15.0739 3.27457 24.8515 255 255 255
-25.8847 -21.3291 33.1154 255 255 255
11.78 -1.62866 31.0514 255 255 255
-32.0548 -59.641 37.211 255 255 255
15.1674 -25.2854 37.6418 255 255 255
25.2507 -19.9771 30.5514 255 255 255
-76.6048 2.62001 -42.4853 255 255 255
-45.9821 13.0142 -56.2015 255 255 255
-27.1101 -21.0434 32.8011 255 255 255
-71.8948 -9.97631 -26.4955 255 255 255
7.53087 -14.6864 38.3325 255 255 255
0.157332 23.0741 -67.3281 255 255 255
-29.8618 28.2202 -73.3656 255 255 255
58.8164 -5.73886 -15.9836 255 255 255
-56.7948 -6.71519 -30.3532 255 255 255
54.4819 41.5651 -90.2719 255 255 255
-23.7239 -13.0435 28.4462 255 255 255
-34.2301 28.4973 -75.9628 255 255 255
-38.9346 -52.273 28.0385 255 255 255
-38.4179 -57.3912 34.2119 255 255 255
-121.266 -7.56941 -28.9134 255 255 255
-118.891 -8.87954 -27.3356 255 255 255
-124.624 -17.1774 -16.0964 255 255 255
-118.826 -7.22067 -28.4808 255 255 255
10.5868 2.7557 27.7012 255 255 255
13.1021 -13.5848 35.5623 255 255 255
-98.891 -52.2229 29.0823 255 255 255
-37.7457 -55.7609 32.335 255 255 255
-34.895 -56.7027 33.7999 255 255 255
-11.7285 68.1427 -71.5067 255 255 255
5.6419 74.2154 -77.2635 255 255 255
-12.6769 68.0024 -70.9698 255 255 255
-85.3044 -55.4405 32.0375 255 255 255
-75.217 31.815 -59.3359 255 255 255
-75.1998 31.8164 -59.3173 255 255 255
-38.9423 53.317 -64.9151 255 255 255
45.8285 80.5287 -99.7087 255 255 255
63.7203 69.9515 -118.421 255 255 255
31.7721 57.2465 -108.318 255 255 255
7.92679 67.5374 -84.6668 255 255 255
8.81936 -21.0703 38.1395 255 255 255
11.3422 -33.8015 38.0831 255 255 255
8.69588 -35.6847 38.4668 255 255 255
-33.9079 -60.6967 38.5391 255 255 255
-52.5119 12.6828 -54.7828 255 255 255
-13.371 -0.552962 30.6562 255 255 255
-24.6432 -11.1132 25.7969 255 255 255
63.3032 -20.144 -12.5529 255 255 255
-32.0636 -58.8368 36.5153 255 255 255
55.7962 -42.548 16.1502 255 255 255
-22.621 -61.3994 39.632 255 255 255
57.5399 29.8346 -46.5825 255 255 255
-20.7682 -8.71505 28.3755 255 255 255
2.13358 -4.90716 37.5552 255 255 255
15.4043 -1.90782 28.1688 255 255 255
-17.8688 -24.7802 37.3999 255 255 255
4.68893 -17.9137 38.9837 255 255 255
67.718 -24.5577 -6.42348 255 255 255
10.9922 -33.7774 38.2088 255 255 255
-33.9839 -54.7148 31.0478 255 255 255
59.1669 -39.6542 12.5955 255 255 255
15.5547 -5.66108 31.0846 255 255 255
14.0094 -39.4009 32.4593 255 255 255
58.3882 -42.2461 15.2481 255 255 255
47.2767 -52.7253 29.061 255 255 255
14.0687 -0.865946 28.4502 255 255 255
9.69709 -36.3764 36.882 255 255 255
-34.9086 -57.6386 35.2612 255 255 255
7.65707 -0.182755 32.6715 255 255 255
27.3352 -16.9855 26.2442 255 255 255
12.7283 -32.4016 38.5457 255 255 255
12.7283 -32.4016 38.5457 255 255 255
13.0853 -38.7274 33.9188 255 255 255
13.2269 -39.9121 32.9697 255 255 255
58.2761 -38.59 11.3346 255 255 255
-3.90354 -15.42 39.9523 255 255 255
-3.8768 -15.4429 39.7673 255 255 255
65.4032 66.7034 -120.165 255 255 255
-77.93 38.0731 -48.0611 255 255 255
59.6667 26.0403 -42.9284 255 255 255
60.2804 24.1262 -44.0578 255 255 255
7.84717 66.1142 -88.3943 255 255 255
-32.0888 65.7975 -59.9552 255 255 255
37.6136 59.8833 -109.761 255 255 255
66.2033 -45.4699 20.7705 255 255 255
57.2021 3.93029 -13.1087 255 255 255
11.1895 53.4275 -97.7175 255 255 255
56.339 73.9543 -110.864 255 255 255
17.6255 77.4995 -83.6885 255 255 255
-71.2139 -9.30144 -25.9563 255 255 255
-32.1681 38.3955 -80.6923 255 255 255
46.7047 85.3263 -96.3074 255 255 255
-3.90044 75.7062 -72.2051 255 255 255
-57.22 46.9821 -57.4339 255 255 255
-36.0863 -59.8816 37.1529 255 255 255
9.5093 -20.6753 37.1266 255 255 255
-26.4548 -13.7519 26.4756 255 255 255
-26.8992 -14.6371 25.6254 255 255 255
-55.0076 56.7506 -51.3865 255 255 255
-57.7407 34.839 -66.8015 255 255 255
61.1273 -10.1179 -12.8827 255 255 255
61.5028 -10.7717 -12.1347 255 255 255
61.8387 0.729133 -2.87023 255 255 255
3.7932 -24.6202 41.0527 255 255 255
62.8757 -12.5167 -8.95181 255 255 255
63.5268 -16.4438 -11.1785 255 255 255
-48.911 44.7528 -64.3514 255 255 255
68.2049 -25.6581 -4.44666 255 255 255
68.6661 -21.6017 -0.806718 255 255 255
-43.1384 47.4043 -65.7821 255 255 255
-63.5371 44.4832 -56.5684 255 255 255
-121.417 51.1452 -84.6866 255 255 255
-53.2369 38.291 -66.7937 255 255 255
-30.3687 50.4206 -72.693 255 255 255
-8.0272 58.0319 -81.7924 255 255 255
-9.45167 -20.8039 37.9419 255 255 255
-37.326 52.7136 -66.1934 255 255 255
61.3467 70.8626 -116.208 255 255 255
24.9517 74.9417 -90.5519 255 255 255
61.4877 70.9707 -116.744 255 255 255
59.799 73.8378 -113.165 255 255 255
-11.7142 68.1196 -71.4928 255 255 255
-29.7483 56.0853 -68.5285 255 255 255
31.7584 44.3809 -93.6726 255 255 255
58.6503 68.253 -116.303 255 255 255
-23.0713 -24.3371 37.0506 255 255 255
-25.2098 -3.50356 15.5989 255 255 255
-33.0475 29.5905 -76.5896 255 255 255
8.51063 30.9363 -77.2149 255 255 255
33.5947 46.6883 -97.2638 255 255 255
-20.9277 -20.4987 34.0903 255 255 255
36.9382 65.6359 -105.08 255 255 255
-12.581 -15.7794 36.857 255 255 255
-32.8346 31.0256 -77.7694 255 255 255
2.04518 -18.0444 39.5525 255 255 255
-17.8073 -17.3921 33.9732 255 255 255
-3.30152 -19.6108 39.291 255 255 255
-19.2625 -18.1281 34.579 255 255 255
-0.329789 -4.8992 37.9203 255 255 255
11.9525 -37.8093 34.7307 255 255 255
65.9937 -12.7943 -1.46155 255 255 255
-28.3342 -1.56282 7.55549 255 255 255
61.9495 -10.2278 -10.0499 255 255 255
58.1348 2.14253 -11.9517 255 255 255
58.0241 -2.47724 -15.7048 255 255 255
-1.52349 -20.139 39.2024 255 255 255
6.15262 -13.7066 38.9165 255 255 255
0.933377 -18.6221 39.5423 255 255 255
12.1113 -21.2775 37.6817 255 255 255
10.8904 -20.0206 36.4329 255 255 255
-20.9825 -24.4039 36.7964 255 255 255
25.7121 -20.5432 31.0571 255 255 255
2.85308 -23.0372 40.554 255 255 255
4.91154 -21.7429 39.0552 255 255 255
-4.57519 -22.3889 39.7669 255 255 255
-30.4658 -16.9612 27.5954 255 255 255
-11.7971 -32.5947 39.984 255 255 255
-17.1038 -17.4739 34.2255 255 255 255
5.13682 -20.9251 38.277 255 255 255
57.2171 6.95513 -11.948 255 255 255
2.69034 -28.6539 42.039 255 255 255
-22.6832 -21.8695 33.6519 255 255 255
-1.92839 -23.2572 40.9867 255 255 255
-2.43791 -33.9096 41.352 255 255 255
11.8125 -26.1902 38.6957 255 255 255
-3.30264 -19.612 39.2897 255 255 255
-12.9856 -18.9797 36.5513 255 255 255
-19.9972 -16.2594 32.7128 255 255 255
-12.1097 -17.2568 37.2683 255 255 255
19.6732 -43.8617 31.3539 255 255 255
-10.7194 -22.0764 39.6698 255 255 255
-19.435 -15.8372 31.9125 255 255 255
-12.0739 -11.4907 38.0175 255 255 255
56.3418 13.9331 -8.18933 255 255 255
3.0292 -10.6657 39.4997 255 255 255
-18.1219 -13.6346 33.0103 255 255 255
-12.6667 -9.89576 36.5065 255 255 255
4.44303 -14.824 39.5122 255 255 255
56.805 13.9436 -7.05742 255 255 255
60.5787 4.24872 -4.17159 255 255 255
66.2353 -14.0411 -2.34498 255 255 255
67.316 -19.3457 -2.69719 255 255 255
31.3457 42.45 -91.6704 255 255 255
0.664733 -59.5588 37.3095 255 255 255
-18.3836 -28.1126 41.7831 255 255 255
12.3076 -24.684 37.5126 255 255 255
-17.0345 -16.7978 33.8078 255 255 255
6.04606 -28.8778 42.3513 255 255 255
-20.3978 -14.1471 29.6291 255 255 255
6.71962 -3.31999 35.2452 255 255 255
2.44007 -3.90329 37.0037 255 255 255
0.0318983 -3.35273 36.8551 255 255 255
-13.3068 0.782478 29.7438 255 255 255
33.3648 60.6291 -106.652 255 255 255
4.76982 68.5172 -82.7185 255 255 255
59.9928 -13.9264 -17.3597 255 255 255
60.7137 -14.8864 -16.8526 255 255 255
-90.6067 -56.0254 33.329 255 255 255
-31.453 39.297 -80.6349 255 255 255
-31.4333 27.9738 -72.0616 255 255 255
-27.6042 -20.4187 31.8937 255 255 255
-26.2759 29.9474 -75.9234 255 255 255
3.38325 46.8404 -95.8282 255 255 255
26.3855 -16.9705 26.6613 255 255 255
63.0019 -49.024 25.2334 255 255 255
-2.10935 -5.45042 38.1286 255 255 255
3.97355 -28.4358 41.6849 255 255 255
-13.6715 -21.9269 39.1576 255 255 255
57.5375 66.183 -117.423 255 255 255
-10.3811 -22.2371 39.7461 255 255 255
62.8424 22.3936 -37.9782 255 255 255
1.29466 -6.24004 38.4359 255 255 255
-31.0683 37.6237 -81.3514 255 255 255
-40.7222 56.6887 -59.9639 255 255 255
-16.8122 61.6557 -73.0213 255 255 255
-10.7719 -20.9155 38.1131 255 255 255
10.4218 -38.597 35.1976 255 255 255
-30.8518 38.8246 -80.6576 255 255 255
-10.1728 -14.4332 38.3694 255 255 255
-21.3484 -16.4037 32.4362 255 255 255
2.66759 -31.8782 42.7858 255 255 255
1.95303 -10.2438 39.5114 255 255 255
-34.3474 42.9472 -75.6977 255 255 255
39.4196 66.816 -105.83 255 255 255
16.1375 -19.4857 35.4654 255 255 255
-26.3429 45.8349 -78.8052 255 255 255
-37.7578 61.0976 -59.6981 255 255 255
-42.927 59.1562 -57.6011 255 255 255
-16.6784 -9.30598 33.4827 255 255 255
16.8695 64.1147 -92.5148 255 255 255
-15.9144 65.0553 -69.6443 255 255 255
33.3509 46.4606 -95.9905 255 255 255
-41.7734 60.5035 -57.3804 255 255 255
12.0967 -38.0732 34.7612 255 255 255
64.3728 -47.9412 23.8838 255 255 255
18.4072 64.6716 -93.3091 255 255 255
7.13345 4.26658 25.4222 255 255 255
60.7742 26.1589 -39.7559 255 255 255
11.3358 -27.0741 39.9572 255 255 255
-7.87878 -23.9265 40.7272 255 255 255
5.49905 -17.5564 38.8855 255 255 255
-17.4134 -19.3149 36.1387 255 255 255
23.874 -9.86519 22.9052 255 255 255
-20.6004 -23.756 36.1978 255 255 255
16.0436 -18.2143 34.0342 255 255 255
28.639 59.5926 -104.361 255 255 255
-5.63892 63.3651 -78.9327 255 255 255
-38.8955 50.4288 -66.8268 255 255 255
-33.89 40.9222 -77.0061 255 255 255
14.1029 -34.3116 36.0599 255 255 255
-23.4958 18.0349 -61.0048 255 255 255
57.1792 28.6096 -47.632 255 255 255
-28.7351 13.5281 -55.1835 255 255 255
-15.356 -21.394 38.6104 255 255 255
-14.6193 -18.3771 35.481 255 255 255
-46.0403 54.8331 -58.6228 255 255 255
-0.021996 -21.7303 39.1349 255 255 255
-68.5045 30.3869 -62.9677 255 255 255
-75.2704 39.2287 -48.9186 255 255 255
0.678826 -22.4794 39.8965 255 255 255
14.934 -20.5954 36.8093 255 255 255
16.3628 -26.1057 38.7202 255 255 255
-24.2676 -23.6954 36.2179 255 255 255
38.2624 31.7496 -77.8906 255 255 255
-24.4958 62.1358 -66.7073 255 255 255
21.3418 -13.5336 27.9111 255 255 255
38.6173 66.1229 -105.666 255 255 255
-29.2115 -13.0578 22.4162 255 255 255
14.7319 64.3121 -92.6683 255 255 255
-14.4176 64.8242 -72.1126 255 255 255
10.6271 59.3197 -91.8752 255 255 255
-20.1999 -23.4641 35.7314 255 255 255
-19.8071 -21.9714 34.6782 255 255 255
38.2267 17.4834 -59.2358 255 255 255
-20.2831 -22.5015 34.5628 255 255 255
-12.5084 -3.97906 34.0191 255 255 255
15.5922 -26.7493 39.2392 255 255 255
-48.7466 47.5904 -62.0144 255 255 255
-15.2434 64.9008 -71.3666 255 255 255
-44.0008 49.9521 -64.3059 255 255 255
-49.5112 34.1527 -73.5396 255 255 255
61.0247 24.4541 -40.7026 255 255 255
-49.9171 33.2677 -74.2303 255 255 255
-44.0185 57.4606 -58.0225 255 255 255
-54.4111 37.6338 -65.6642 255 255 255
28.3259 -13.1413 21.7877 255 255 255
-43.9131 59.0046 -57.2646 255 255 255
59.3499 34.0095 -38.4149 255 255 255
60.0735 -9.95147 -15.6277 255 255 255
60.5776 -14.8861 -16.6027 255 255 255
-0.483548 -9.27609 39.3704 255 255 255
1.62971 -11.3099 39.6568 255 255 255
8.97531 -28.1413 41.2923 255 255 255
-7.44431 -61.7906 40.244 255 255 255
57.1965 -42.0901 15.7234 255 255 255
-26.2335 -60.4718 38.2459 255 255 255
63.8154 -7.53234 -3.22112 255 255 255
-24.051 -22.5224 34.6314 255 255 255
64.3063 -15.684 -7.59965 255 255 255
-19.8035 -21.9853 34.6322 255 255 255
64.95 -15.0425 -5.86683 255 255 255
-15.0643 -18.176 35.1021 255 255 255
-18.3839 -13.567 32.6491 255 255 255
62.4863 -8.07873 -8.18999 255 255 255
-27.5984 -56.752 33.8146 255 255 255
-12.6721 -10.46 36.5079 255 255 255
-10.336 -18.889 37.867 255 255 255
-4.94945 -19.9586 38.9223 255 255 255
-5.26584 -20.511 38.8042 255 255 255
-5.72354 -20.7271 38.7698 255 255 255
-15.3662 -21.3642 38.6722 255 255 255
63.7238 -12.6922 -8.15899 255 255 255
68.343 -23.4259 -3.2603 255 255 255
68.3849 -26.1954 -5.2712 255 255 255
67.2914 -22.5541 -5.06294 255 255 255
-23.9036 -58.6626 36.135 255 255 255
52.2274 -39.2708 11.6467 255 255 255
-9.00083 -6.62459 37.1864 255 255 255
-36.2475 -52.3498 28.1958 255 255 255
-79.788 1.85863 -41.815 255 255 255
-1.25826 -23.7292 41.4479 255 255 255
1.52443 -28.5012 41.8552 255 255 255
27.9759 -15.3552 24.651 255 255 255
20.9477 -20.0302 31.638 255 255 255
18.0807 -26.2505 38.4397 255 255 255
14.5613 -29.1484 39.9185 255 255 255
-2.89357 -30.6064 43.9383 255 255 255
-33.4167 -55.4524 31.8544 255 255 255
-30.4655 -59.3707 36.8837 255 255 255
-31.281 -59.8525 37.4466 255 255 255
7.89555 2.42585 28.5859 255 255 255
59.2672 -5.59899 -12.8922 255 255 255
13.0927 -7.41064 34.0285 255 255 255
3.66221 -28.1127 41.3583 255 255 255
-21.6294 -15.045 31.0389 255 255 255
-27.4399 -14.5551 24.8367 255 255 255
-18.7474 -16.8301 32.9557 255 255 255
-15.876 -20.1387 36.997 255 255 255
-16.1423 -25.2986 37.8677 255 255 255
6.44382 -29.3281 42.8882 255 255 255
19.8409 -15.8163 30.8481 255 255 255
20.9188 -21.1036 32.3802 255 255 255
9.46365 -21.4499 38.4072 255 255 255
6.03626 -21.3673 38.4787 255 255 255
57.0802 -48.7427 23.8413 255 255 255
17.4309 -16.8881 32.3563 255 255 255
24.8356 -18.9471 28.903 255 255 255
19.9171 -24.4699 36.5256 255 255 255
16.6275 -25.2497 37.5323 255 255 255
16.6392 -25.2717 37.4842 255 255 255
-9.26111 -21.9534 38.7321 255 255 255
14.0734 -31.9971 38.079 255 255 255
1.98796 -42.279 34.6686 255 255 255
19.9362 -21.7372 33.2238 255 255 255
-12.4833 -28.4102 42.2586 255 255 255
-21.716 -39.006 27.9714 255 255 255
6.50525 -33.4176 43.2101 255 255 255
-23.5806 -5.28049 17.9993 255 255 255
-4.43806 -12.6537 39.5484 255 255 255
-9.87279 60.5334 -78.4634 255 255 255
-36.6433 8.0984 -48.7988 255 255 255
-24.674 -5.59128 18.7958 255 255 255
-27.7913 -21.9769 33.9725 255 255 255
-15.7221 -0.623469 28.9536 255 255 255
-24.357 -3.56634 16.0777 255 255 255
-5.82505 53.5726 -86.5056 255 255 255
-4.29515 -4.89844 38.1206 255 255 255
-12.4082 2.60634 28.5901 255 255 255
-9.70901 -3.23708 35.005 255 255 255
-50.8697 -26.1335 -5.33228 255 255 255
-67.5274 35.5316 -59.0552 255 255 255
-65.9832 48.8473 -49.6051 255 255 255
1.21219 -5.68596 38.1733 255 255 255
7.06472 -3.67714 35.2706 255 255 255
-10.9843 -6.62001 36.2833 255 255 255
37.3747 64.6205 -106.408 255 255 255
-0.226399 -8.48019 39.1904 255 255 255
-14.8527 -20.8264 38.1042 255 255 255
62.6045 73.5513 -115.175 255 255 255
-12.242 -28.0664 41.4814 255 255 255
13.1993 77.9279 -80.0776 255 255 255
-23.2455 60.6122 -69.8236 255 255 255
-26.2612 59.7445 -68.3855 255 255 255
-12.1582 -14.5093 37.3628 255 255 255
22.5863 24.155 -68.4444 255 255 255
30.1162 25.6317 -70.1348 255 255 255
25.1428 25.0776 -69.1953 255 255 255
10.4009 -33.0912 39.1639 255 255 255
15.6813 -14.6409 33.3345 255 255 255
-52.6 -4.44201 -32.8514 255 255 255
-25.2385 -11.9815 26.8763 255 255 255
-69.7923 -14.6821 -20.1103 255 255 255
25.2552 -0.464016 4.5276 255 255 255
-18.4409 -40.9424 31.7957 255 255 255
-53.9631 -0.476901 -38.0868 255 255 255
60.8629 25.0568 -41.5344 255 255 255
23.5459 -18.7675 28.9923 255 255 255
1.70635 18.1709 -61.0281 255 255 255
10.467 -27.7408 40.8468 255 255 255
16.9716 -33.6714 35.2407 255 255 255
8.24291 0.264859 32.0009 255 255 255
-7.89842 -47.6899 36.7927 255 255 255
-12.4835 -32.4317 39.7018 255 255 255
0.813049 -40.4284 36.7515 255 255 255
-56.0119 39.0209 -64.3706 255 255 255
-55.5704 43.8155 -61.051 255 255 255
-75.223 32.6373 -58.7219 255 255 255
-22.6169 -21.2632 33.2889 255 255 255
-51.9392 45.2327 -60.9786 255 255 255
-34.4978 35.411 -81.4249 255 255 255
63.9669 38.8797 -86.7696 255 255 255
-4.57235 5.90908 22.2774 255 255 255
-41.3017 49.4605 -65.5249 255 255 255
-35.8217 -54.3247 30.7363 255 255 255
22.6003 -11.9914 25.8575 255 255 255
-52.4103 -28.1491 -3.41048 255 255 255
-43.8198 -56.0699 32.227 255 255 255
-25.8471 -4.59051 17.2244 255 255 255
59.0619 25.7249 -44.8888 255 255 255
-34.4108 3.96419 -43.3113 255 255 255
-21.4326 -11.6092 28.423 255 255 255
-24.4463 20.2674 -63.6093 255 255 255
39.9707 -53.6099 29.8081 255 255 255
54.4626 -32.7482 2.79256 255 255 255
63.5694 -12.0487 -7.90174 255 255 255
-43.7731 -52.7086 27.9724 255 255 255
31.6901 23.0735 -66.2734 255 255 255
-17.2598 -3.96033 30.0868 255 255 255
-41.0673 50.918 -65.1273 255 255 255
62.9717 -19.0849 -13.4634 255 255 255
-29.9834 -59.4476 36.9534 255 255 255
-35.8867 37.3903 -78.6248 255 255 255
24.3616 32.5228 -79.0101 255 255 255
54.6658 -42.8614 16.6055 255 255 255
-20.8111 31.1016 -77.382 255 255 255
3.73606 -13.2663 39.44 255 255 255
-23.4083 9.27196 -49.1609 255 255 255
-0.316932 20.5653 -63.8945 255 255 255
-30.4474 -59.3076 37.0614 255 255 255
62.2735 -49.348 25.7789 255 255 255
3.09012 -11.5776 39.5693 255 255 255
-76.0468 34.5968 -55.3127 255 255 255
55.5305 11.7377 -12.8325 255 255 255
61.8214 -9.60406 -9.99537 255 255 255
-10.2111 -9.44707 37.5734 255 255 255
-15.4199 -27.7345 40.7698 255 255 255
-1.81203 -10.6518 39.7778 255 255 255
-75.074 29.8237 -60.8074 255 255 255
-119.07 -8.29637 -26.9659 255 255 255
-70.8438 -1.35105 -37.5777 255 255 255
-83.3347 9.43613 -51.1178 255 255 255
-81.5385 8.48227 -49.6449 255 255 255
-68.7616 38.4166 -54.586 255 255 255
12.9626 -11.342 35.1613 255 255 255
-80.4743 18.0712 -62.2268 255 255 255
-82.0785 43.2114 -44.7225 255 255 255
-34.4048 -55.5559 32.0825 255 255 255
-4.21874 -8.05732 39.0862 255 255 255
-53.7894 31.8512 -68.4355 255 255 255
-79.6754 33.199 -60.9102 255 255 255
-14.1357 61.1207 -75.371 255 255 255
21.1718 68.3517 -90.7175 255 255 255
-50.5069 36.3069 -72.0793 255 255 255
-52.882 53.2871 -55.2165 255 255 255
-75.8131 44.3484 -47.0137 255 255 255
-17.5734 59.1975 -73.0847 255 255 255
-40.4589 50.6222 -65.615 255 255 255
-66.9419 -12.7437 -22.4451 255 255 255
-73.8572 -0.913291 -37.4989 255 255 255
-38.6075 -61.3254 39.2032 255 255 255
-40.6192 -54.9109 31.1662 255 255 255
-7.69098 -2.49131 35.285 255 255 255
-24.1112 -4.48851 17.2123 255 255 255
6.23967 -14.2333 38.7565 255 255 255
-19.6523 -21.0244 34.9904 255 255 255
15.1279 -33.6567 36.1761 255 255 255
24.9919 20.4664 -63.5145 255 255 255
-38.9028 17.5774 -60.9946 255 255 255
-40.2589 15.9529 -58.4586 255 255 255
10.1884 2.25123 28.3657 255 255 255
-1.31312 -4.10082 37.4436 255 255 255
4.46096 -5.82849 37.3855 255 255 255
4.46492 -5.83798 37.3527 255 255 255
21.7205 -13.1902 27.4638 255 255 255
20.5538 -14.1389 28.728 255 255 255
5.30673 -12.7345 39.0205 255 255 255
-26.1915 -14.2988 26.8151 255 255 255
4.53367 -17.0624 39.2276 255 255 255
-10.925 -22.2 39.7653 255 255 255
-2.63737 -31.4813 43.4545 255 255 255
61.2713 -42.2334 16.083 255 255 255
-30.454 19.7692 -62.9921 255 255 255
40.7104 15.0448 -56.3435 255 255 255
-39.098 18.7349 -61.4783 255 255 255
37.3556 14.2008 -54.975 255 255 255
33.2842 13.2847 -54.3677 255 255 255
32.9149 12.1648 -52.9733 255 255 255
-3.64926 7.12151 22.0678 255 255 255
10.6844 -0.606716 31.3444 255 255 255
-77.5872 -1.15276 -37.2695 255 255 255
29.7619 -8.50446 15.3393 255 255 255
-25.0922 -5.67201 18.5555 255 255 255
4.22906 -19.3562 38.741 255 255 255
1.2206 -22.9827 40.5503 255 255 255
14.637 -32.9302 36.967 255 255 255
-35.1443 -52.8071 28.9452 255 255 255
-55.9665 -59.1489 37.5044 255 255 255
-2.10817 6.95696 21.414 255 255 255
13.2565 -4.53709 32.4026 255 255 255
13.6523 -20.8411 36.9812 255 255 255
-8.21878 -21.0601 38.2123 255 255 255
9.37836 -27.3028 40.2154 255 255 255
-3.921 -28.6205 42.0411 255 255 255
40.3446 -46.7725 21.5083 255 255 255
-40.7974 -52.0963 27.1735 255 255 255
9.17051 1.7939 30.3281 255 255 255
-29.0722 -4.99658 12.0069 255 255 255
9.93598 -6.86807 35.553 255 255 255
3.94505 -22.3594 39.6117 255 255 255
-1.35851 -23.024 40.8023 255 255 255
-27.0338 -58.7643 36.9165 255 255 255
-47.6412 -9.2976 -26.3397 255 255 255
57.4562 -46.0862 21.1423 255 255 255
-39.3155 -52.8382 28.5991 255 255 255
16.6945 -5.80494 30.0204 255 255 255
-47.3381 -10.6726 -24.3539 255 255 255
-34.5224 -60.9832 39.0311 255 255 255
27.2665 -35.0318 23.0136 255 255 255
-25.5136 -58.8094 36.3494 255 255 255
22.7918 -32.9699 28.377 255 255 255
-50.811 -59.5319 37.4559 255 255 255
3.16009 -12.7688 39.657 255 255 255
-65.1374 -13.0025 -22.1639 255 255 255
-61.3637 -25.3756 -6.30438 255 255 255
62.9453 -2.27481 -2.38269 255 255 255
29.4331 -14.2462 22.8958 255 255 255
-3.36974 -27.6292 40.923 255 255 255
40.488 14.3306 -55.683 255 255 255
20.9429 -36.9327 28.0806 255 255 255
42.5404 -50.9302 26.5307 255 255 255
13.97 -30.5555 39.1382 255 255 255
-32.9841 -27.5027 14.9812 255 255 255
-59.9119 -30.1053 -0.417452 255 255 255
-27.4769 -21.6565 33.6934 255 255 255
-21.0228 -25.5869 38.4437 255 255 255
2.55369 -17.6723 39.5441 255 255 255
29.4297 59.3671 -104.961 255 255 255
-67.7069 -12.9497 -22.8684 255 255 255
-2.15559 -29.3852 43.0069 255 255 255
-13.239 -36.1173 36.3481 255 255 255
-11.9345 -34.712 37.7817 255 255 255
5.79257 -30.4861 44.2549 255 255 255
-21.5657 -62.7124 40.9376 255 255 255
-22.3026 -61.5693 39.7247 255 255 255
-3.85471 73.3893 -72.7328 255 255 255
-89.9177 -12.2825 -23.6311 255 255 255
-7.28017 4.99635 24.364 255 255 255
-5.74601 -8.36398 38.7447 255 255 255
-3.59775 -15.5862 39.9713 255 255 255
-2.89058 -16.8561 39.9603 255 255 255
-2.61307 -14.18 40.0898 255 255 255
-16.3616 64.277 -71.4813 255 255 255
56.1299 20.8839 -4.49236 255 255 255
6.04037 -9.6563 38.5098 255 255 255
-6.85107 -6.91799 38.0073 255 255 255
-24.8389 -4.10283 16.4955 255 255 255
63.8227 70.8106 -118.041 255 255 255
34.7495 70.1666 -100.604 255 255 255
20.1887 80.1047 -83.3302 255 255 255
-18.5495 -15.6987 32.3761 255 255 255
-10.3083 -12.2054 38.0708 255 255 255
-3.85116 -8.77625 39.1921 255 255 255
-7.77824 -10.4991 38.701 255 255 255
-55.6208 45.6685 -59.5137 255 255 255
-55.8696 46.939 -56.6618 255 255 255
14.1072 -13.0819 34.6014 255 255 255
11.6448 -5.93687 34.2929 255 255 255
15.86 -11.2519 33.067 255 255 255
17.6864 -24.424 36.3933 255 255 255
8.62312 -39.7719 34.8779 255 255 255
15.676 -6.77655 31.7592 255 255 255
14.0994 -6.39604 32.8799 255 255 255
15.3521 -4.74254 30.852 255 255 255
12.043 -28.8494 41.4013 255 255 255
9.16637 -5.43738 35.1931 255 255 255
1.899 -5.20211 37.782 255 255 255
0.59642 -8.82767 39.2448 255 255 255
-40.8801 45.0598 -69.6265 255 255 255
11.2776 51.9048 -98.519 255 255 255
61.979 -20.9681 -10.9067 255 255 255
17.2484 -17.2369 32.8881 255 255 255
-21.3072 -23.2164 35.2413 255 255 255
-9.42175 57.7713 -82.1382 255 255 255
-9.42175 57.7713 -82.1382 255 255 255
56.3886 29.6593 -48.7283 255 255 255
9.66957 51.7388 -97.6223 255 255 255
30.1993 21.5052 -63.9034 255 255 255
37.9904 19.1003 -61.0106 255 255 255
58.3692 -3.45972 -14.7827 255 255 255
60.8542 -6.35479 -10.4582 255 255 255
58.1253 -5.59952 -16.1189 255 255 255
63.2878 -12.392 -8.03009 255 255 255
58.4992 -20.5098 -12.323 255 255 255
2.25662 -11.3539 39.617 255 255 255
69.3447 -29.0145 -0.674311 255 255 255
69.5751 -29.3166 -0.220413 255 255 255
0.136744 -13.6577 40.1331 255 255 255
22.9597 -20.772 31.6817 255 255 255
-16.1892 -12.0728 34.2028 255 255 255
18.7044 -23.9888 35.961 255 255 255
17.3463 -24.0605 35.9891 255 255 255
14.7037 -26.7027 39.2494 255 255 255
-15.5302 -20.612 37.9255 255 255 255
-15.6663 -20.9309 37.9273 255 255 255
-11.1698 -22.3328 40.2269 255 255 255
51.7963 -43.7429 17.727 255 255 255
41.5285 -48.7877 23.8324 255 255 255
27.1757 -57.3601 34.5265 255 255 255
-1.85626 -62.1814 40.2866 255 255 255
-24.0181 -58.2288 35.5433 255 255 255
-37.6206 -56.9643 33.6875 255 255 255
12.0026 53.5081 -98.3391 255 255 255
64.7309 39.5197 -87.4065 255 255 255
53.4372 33.4333 -79.7107 255 255 255
57.44 11.1964 -7.84339 255 255 255
-25.4215 20.8976 -64.6052 255 255 255
-58.1316 -3.92835 -34.2114 255 255 255
67.5097 -42.825 17.366 255 255 255
63.65 -44.5829 18.8191 255 255 255
49.4853 -46.9494 21.6053 255 255 255
-14.5742 -33.1136 37.861 255 255 255
-40.8357 -52.9026 28.8623 255 255 255
-26.8149 54.2813 -71.3487 255 255 255
-6.89027 53.6166 -85.6367 255 255 255
58.0727 10.9277 -5.92032 255 255 255
59.478 -5.5334 -13.5234 255 255 255
-45.2633 -9.18451 -28.1054 255 255 255
3.56588 -23.0006 40.712 255 255 255
-26.8297 -19.5505 30.0533 255 255 255
-19.7357 -24.0906 36.7564 255 255 255
38.6544 -50.1698 24.7192 255 255 255
-5.03228 -62.8487 41.6631 255 255 255
10.8074 53.9077 -96.581 255 255 255
-11.016 0.733016 31.1359 255 255 255
40.3045 -49.5048 24.1802 255 255 255
39.3664 22.3065 -65.0419 255 255 255
-23.4136 12.2498 -53.6366 255 255 255
43.3573 -51.1613 26.9631 255 255 255
56.5928 -44.5671 18.6899 255 255 255
-39.0274 -55.9799 32.3908 255 255 255
52.476 -46.1758 20.9262 255 255 255
52.5947 -46.7932 23.2273 255 255 255
40.1376 -48.2669 23.1953 255 255 255
-37.4921 -54.9444 31.2035 255 255 255
59.5812 -13.231 -18.8002 255 255 255
5.55766 -20.5871 38.117 255 255 255
40.3302 -49.5451 24.0635 255 255 255
-49.1464 51.1502 -60.1769 255 255 255
-11.0249 -28.5283 42.0316 255 255 255
60.1889 29.6091 -39.2285 255 255 255
-12.2051 -7.54748 36.1047 255 255 255
-26.4843 -58.0514 34.7344 255 255 255
27.9315 36.7725 -83.9963 255 255 255
-1.88625 -22.0911 39.6268 255 255 255
-0.109359 25.3845 -69.4647 255 255 255
26.3854 -22.5692 32.7466 255 255 255
61.5315 -45.0011 19.1365 255 255 255
37.9368 -52.2578 28.1559 255 255 255
-27.1032 -59.0692 36.6812 255 255 255
-22.7574 -59.3329 37.5058 255 255 255
-30.5038 -58.3025 35.508 255 255 255
-33.9509 -58.0797 35.1761 255 255 255
-17.8779 -49.8746 30.9927 255 255 255
40.022 19.3694 -62.4882 255 255 255
-8.44311 -25.6436 39.9283 255 255 255
-12.096 -17.2687 37.2451 255 255 255
65.6323 -45.2978 20.5491 255 255 255
-1.4247 -51.3598 34.6084 255 255 255
-40.8942 -54.8485 30.8046 255 255 255
-51.1686 -35.764 6.92014 255 255 255
-73.0118 34.0762 -55.1725 255 255 255
13.5542 56.8715 -95.8358 255 255 255
15.3874 68.5448 -82.023 255 255 255
39.843 71.1551 -102.538 255 255 255
48.2411 84.2754 -98.4929 255 255 255
54.0903 78.5855 -106.842 255 255 255
39.8938 71.2205 -102.76 255 255 255
18.5714 -8.60813 28.7919 255 255 255
8.77626 -21.6992 38.5802 255 255 255
7.32395 -22.0909 39.2476 255 255 255
41.897 83.9758 -94.6848 255 255 255
-30.3119 -60.5277 38.1883 255 255 255
-26.4531 48.2238 -76.7246 255 255 255
55.9759 86.2254 -101.57 255 255 255
54.4029 82.4929 -103.313 255 255 255
56.5173 35.1802 -45.2025 255 255 255
62.781 -5.0349 -4.86192 255 255 255
-32.802 39.457 -79.6852 255 255 255
5.36356 73.9607 -78.0302 255 255 255
-31.9583 -58.5952 35.9965 255 255 255
-2.18234 -40.139 37.0854 255 255 255
33.9279 67.0315 -102.242 255 255 255
-31.9537 37.3716 -81.3002 255 255 255
-6.84329 53.6395 -85.9308 255 255 255
-34.429 -59.8502 37.5601 255 255 255
-35.1025 -54.6043 30.951 255 255 255
-25.4655 -58.6506 36.0574 255 255 255
68.71 -25.2719 -2.73643 255 255 255
-31.821 -56.8839 33.8784 255 255 255
-31.4101 -57.6446 34.9525 255 255 255
59.1879 -14.7796 -18.5077 255 255 255
-20.3618 11.3123 -52.1145 255 255 255
-23.5992 -1.80555 13.4773 255 255 255
60.1421 -15.6822 -16.5825 255 255 255
56.4256 1.07026 -17.6739 255 255 255
-88.8097 32.7313 -48.0624 255 255 255
19.4603 72.2265 -89.1956 255 255 255
36.5877 70.6223 -100.86 255 255 255
66.4188 45.6092 -95.5135 255 255 255
56.4803 39.79 -86.3551 255 255 255
27.0945 34.598 -81.751 255 255 255
33.7486 26.1845 -70.5855 255 255 255
70.3473 75.3921 -118.631 255 255 255
29.2381 22.9823 -66.5583 255 255 255
33.0741 72.5595 -98.4588 255 255 255
21.1718 68.3517 -90.7175 255 255 255
31.9045 40.9726 -90.3526 255 255 255
-41.4306 42.4447 -71.8121 255 255 255
43.0852 45.2078 -94.2879 255 255 255
26.9512 40.7515 -89.4105 255 255 255
31.9307 69.7056 -99.4651 255 255 255
26.8291 39.4291 -86.9071 255 255 255
-47.436 55.696 -56.9897 255 255 255
-80.9092 32.6385 -58.2752 255 255 255
-76.2138 30.8405 -60.9969 255 255 255
26.3234 80.7295 -86.4381 255 255 255
16.3929 -27.462 40.0219 255 255 255
-31.645 -56.3463 33.0094 255 255 255
-40.0882 -51.7987 27.4961 255 255 255
-8.11131 -7.19472 37.6677 255 255 255
16.788 -13.5349 32.0953 255 255 255
16.2092 -0.774032 25.4591 255 255 255
60.2146 -13.5935 -18.2728 255 255 255
25.2733 -34.8155 23.3133 255 255 255
-19.4523 -24.4906 36.975 255 255 255
-81.4708 7.95712 -49.2609 255 255 255
49.1497 -46.8048 21.5053 255 255 255
6.8056 -6.32445 36.6186 255 255 255
13.6008 53.4052 -99.1085 255 255 255
17.0893 -40.8306 30.9202 255 255 255
-30.1896 -6.76934 14.5212 255 255 255
61.6635 21.981 -41.6955 255 255 255
-48.9964 -26.4919 -4.76718 255 255 255
59.7103 -13.7598 -17.9011 255 255 255
59.6143 -49.4659 25.397 255 255 255
5.88238 -30.0785 43.7197 255 255 255
28.3722 45.0129 -95.4205 255 255 255
17.1158 -27.9741 40.1295 255 255 255
-5.70589 -3.64124 36.6395 255 255 255
34.489 -54.7025 31.0721 255 255 255
-44.2131 44.7291 -67.3506 255 255 255
12.8909 -33.1641 37.8659 255 255 255
-51.7114 46.6848 -60.7627 255 255 255
24.169 -21.5397 32.4285 255 255 255
54.106 -45.211 18.9356 255 255 255
-5.8381 -5.27396 37.4883 255 255 255
28.9294 42.0086 -90.3256 255 255 255
60.0106 -13.7967 -18.5506 255 255 255
22.948 -28.1584 32.0066 255 255 255
9.87391 -0.803223 32.1057 255 255 255
-50.8396 -28.182 -2.55005 255 255 255
12.3967 -33.5953 37.7529 255 255 255
-6.25627 -13.3933 39.4917 255 255 255
-23.7468 -0.34405 11.7013 255 255 255
-56.789 -30.3947 -0.277803 255 255 255
52.6303 -47.702 22.6699 255 255 255
61.8287 -1.65714 -4.95544 255 255 255
54.8091 -48.1058 23.2229 255 255 255
-38.0534 7.60774 -47.861 255 255 255
-34.6787 -54.2115 30.2439 255 255 255
59.5375 40.1087 -35.4068 255 255 255
58.376 -11.4321 -20.7415 255 255 255
58.7998 34.8247 -39.2031 255 255 255
-4.71487 -28.9255 42.4706 255 255 255
18.7367 -12.5258 29.7035 255 255 255
5.241 -41.1342 35.7457 255 255 255
-6.38333 -7.51601 38.3134 255 255 255
-5.09252 6.00172 22.4648 255 255 255
56.2835 -50.578 26.5526 255 255 255
-32.6254 -57.618 34.6052 255 255 255
59.5046 0.203021 -9.69968 255 255 255
-5.32011 15.34 -57.1465 255 255 255
-74.2295 -1.48912 -37.5466 255 255 255
14.4231 -10.8916 34.2923 255 255 255
13.7934 -16.3149 35.2054 255 255 255
-2.00541 3.13734 29.2071 255 255 255
16.0993 -0.764786 26.1537 255 255 255
6.58761 -29.8042 43.1822 255 255 255
8.36546 -39.143 35.7776 255 255 255
-37.3061 -53.76 29.8761 255 255 255
-7.08648 -18.5538 38.9254 255 255 255
56.0512 31.0857 -49.6971 255 255 255
-34.661 -54.1839 30.3638 255 255 255
-17.5872 2.27879 23.0166 255 255 255
-6.29701 -5.16413 37.2992 255 255 255
1.14068 -6.86324 38.7049 255 255 255
14.0159 -38.5378 33.309 255 255 255
-32.519 -58.0066 35.2409 255 255 255
4.17624 -7.54771 38.1232 255 255 255
14.2834 -40.9383 31.2444 255 255 255
-38.0557 -53.4011 31.9949 255 255 255
-28.332 -21.496 32.5804 255 255 255
-38.0661 6.80953 -46.5181 255 255 255
-25.8009 -58.5817 36.0245 255 255 255
-26.0131 -4.01525 16.5875 255 255 255
-32.0092 -11.4357 20.3288 255 255 255
-31.7537 -15.1363 25.4881 255 255 255
2.66237 -3.70117 36.8267 255 255 255
-15.2649 -2.85886 31.3075 255 255 255
16.7477 -25.3507 37.5465 255 255 255
-30.6496 -57.8513 35.6223 255 255 255
12.5017 -5.99145 33.5097 255 255 255
-11.6962 -6.62949 36.179 255 255 255
-72.6992 -0.544129 -38.9592 255 255 255
11.2646 -6.33714 34.7441 255 255 255
25.0325 -56.9189 34.2648 255 255 255
35.2711 69.8159 -101.014 255 255 255
35.2711 69.8159 -101.014 255 255 255
34.5758 67.8333 -101.708 255 255 255
67.7034 72.2924 -120.217 255 255 255
15.7126 62.5124 -91.5925 255 255 255
32.1416 60.3948 -106.521 255 255 255
-81.3576 32.9801 -58.196 255 255 255
-15.5998 3.77573 23.4884 255 255 255
-25.8559 -10.5598 24.9252 255 255 255
64.7088 -16.032 -5.93503 255 255 255
13.0306 -27.2599 39.9312 255 255 255
58.6307 -40.0558 13.3795 255 255 255
62.1764 -49.0385 24.9082 255 255 255
20.112 66.3267 -93.3862 255 255 255
67.838 74.6197 -117.545 255 255 255
-18.64 58.5021 -73.2716 255 255 255
-9.97282 58.4027 -79.9043 255 255 255
28.7887 62.3119 -101.806 255 255 255
8.79337 58.2227 -91.8601 255 255 255
30.9537 56.2798 -108.013 255 255 255
-1.45835 16.3614 -58.4329 255 255 255
35.0052 12.5754 -51.9329 255 255 255
-78.7036 3.274 -43.5547 255 255 255
-70.3493 -2.2215 -35.4233 255 255 255
2.96366 -3.80962 36.9291 255 255 255
61.3925 -14.7486 -14.225 255 255 255
39.4657 -39.773 14.1807 255 255 255
54.717 -43.634 17.8349 255 255 255
65.5783 -45.1403 19.9887 255 255 255
30.9627 -56.3357 33.4361 255 255 255
-1.67132 -61.9401 40.0883 255 255 255
-82.0392 32.6314 -59.5227 255 255 255
33.7088 39.4344 -88.0547 255 255 255
60.5368 24.6617 -41.8171 255 255 255
-2.35345 22.1466 -65.315 255 255 255
-77.2626 20.4295 -64.8801 255 255 255
57.5897 13.4952 -6.42251 255 255 255
-82.732 10.7429 -52.2949 255 255 255
-21.2163 9.66304 -49.8908 255 255 255
-72.6127 0.591316 -39.4164 255 255 255
-10.0121 -0.003853 32.377 255 255 255
-9.43077 -4.75023 36.1462 255 255 255
59.6837 -10.9083 -15.0165 255 255 255
-25.5375 -10.1803 24.6514 255 255 255
62.2214 -11.7644 -10.5295 255 255 255
61.8997 -11.7302 -9.79507 255 255 255
-31.2241 -16.9265 27.441 255 255 255
-4.67821 -39.3541 37.1037 255 255 255
67.5596 -45.255 20.2709 255 255 255
25.4738 -57.2155 34.035 255 255 255
-77.6156 3.08679 -43.3476 255 255 255
30.8251 59.4651 -105.221 255 255 255
-6.98337 -20.8704 38.4334 255 255 255
-39.782 15.017 -57.3646 255 255 255
50.4917 -48.7823 24.428 255 255 255
28.7373 39.9217 -87.3414 255 255 255
52.256 -47.9155 22.9219 255 255 255
-80.2231 32.0554 -58.5325 255 255 255
54.2083 -46.3773 21.45 255 255 255
49.3002 -30.512 0.379657 255 255 255
-40.164 8.37071 -48.9254 255 255 255
7.39954 4.74135 26.1067 255 255 255
60.1931 -14.5051 -18.2059 255 255 255
17.592 -27.961 40.8859 255 255 255
1.14266 16.4254 -58.1271 255 255 255
-9.14647 -15.0368 38.6815 255 255 255
-35.5387 4.33464 -44.0788 255 255 255
-15.0158 3.64034 24.439 255 255 255
52.4866 -49.0497 24.6216 255 255 255
16.6783 -59.8832 37.6945 255 255 255
33.2151 31.4904 -77.5527 255 255 255
33.2151 31.4904 -77.5527 255 255 255
-22.549 0.0370079 11.254 255 255 255
61.901 -15.3072 -14.4439 255 255 255
57.9126 -40.4444 13.369 255 255 255
-25.9986 30.9273 -77.4459 255 255 255
1.384 25.1966 -69.8178 255 255 255
0.787891 17.9302 -60.7707 255 255 255
32.1606 8.34672 -47.6274 255 255 255
-4.89699 -4.4512 37.2655 255 255 255
-31.6201 -7.70105 15.4167 255 255 255
-59.5072 -13.4805 -21.1123 255 255 255
23.8464 -9.8666 22.9623 255 255 255
12.5532 -11.2266 35.4645 255 255 255
32.4957 46.1377 -97.1804 255 255 255
58.2751 27.0876 -45.0711 255 255 255
-50.1901 -26.2692 -4.96103 255 255 255
57.9364 -40.9516 14.9993 255 255 255
58.2258 -43.1764 16.842 255 255 255
-14.4285 -7.02662 34.6074 255 255 255
-69.4968 -14.073 -21.4298 255 255 255
-1.6953 -61.8392 40.3512 255 255 255
-1.7685 -61.4647 40.0934 255 255 255
56.7696 31.8355 -47.4075 255 255 255
58.8856 -13.539 -20.1608 255 255 255
56.8372 -44.0666 17.7498 255 255 255
10.5369 55.6128 -95.4625 255 255 255
-4.56677 15.712 -57.4685 255 255 255
64.3066 -12.1213 -5.62562 255 255 255
-11.0869 -14.2751 37.8018 255 255 255
55.8119 -42.5527 16.2264 255 255 255
38.9105 -52.084 28.2244 255 255 255
29.8504 45.2609 -93.5774 255 255 255
60.6091 -6.50922 -11.1588 255 255 255
5.65876 -15.7041 39.0363 255 255 255
57.5913 28.4813 -47.5164 255 255 255
-48.3364 -8.10189 -28 255 255 255
38.8925 18.2934 -59.4748 255 255 255
-80.4322 3.83859 -44.2382 255 255 255
6.11472 -9.29318 38.2052 255 255 255
0.953052 -29.6884 43.3232 255 255 255
-41.8601 -55.2606 31.5691 255 255 255
24.2549 38.6242 -86.6437 255 255 255
-77.9006 3.87862 -45.1091 255 255 255
8.86264 -43.4756 29.1599 255 255 255
-36.7325 -52.5191 28.1317 255 255 255
39.1439 16.7868 -57.5266 255 255 255
40.8994 15.7885 -56.9041 255 255 255
39.3291 -49.0964 24.1239 255 255 255
-36.98 -53.086 29.2284 255 255 255
-20.8144 -23.4886 35.7811 255 255 255
58.3992 45.1887 -33.8383 255 255 255
-78.5847 31.0577 -61.1688 255 255 255
-53.899 37.0955 -66.5823 255 255 255
-79.3678 8.70628 -50.0478 255 255 255
-41.9255 17.3492 -60.5766 255 255 255
-61.1134 16.2832 -58.6523 255 255 255
-65.7172 34.8053 -61.5197 255 255 255
-76.2554 38.7403 -57.7903 255 255 255
-56.9796 -6.70694 -31.0267 255 255 255
-67.3793 41.3469 -54.1544 255 255 255
-75.5036 28.2372 -60.4998 255 255 255
-81.7062 8.53707 -50.2121 255 255 255
-69.5136 -10.7439 -25.8689 255 255 255
44.9212 -45.2047 18.4632 255 255 255
-7.64081 -61.7433 39.9523 255 255 255
-34.1229 -59.5959 37.3408 255 255 255
25.8111 -17.3186 27.0986 255 255 255
-43.3328 -53.0808 28.6565 255 255 255
1.68288 -8.92681 39.0993 255 255 255
-79.2242 -58.3887 37.764 255 255 255
12.5891 -8.35505 34.7964 255 255 255
-37.5292 -25.215 8.3004 255 255 255
-17.9861 -25.1858 37.9307 255 255 255
-4.98228 -42.5183 34.7702 255 255 255
-27.5922 -20.4043 32.0451 255 255 255
10.6339 -27.1149 40.1074 255 255 255
-6.8849 -30.5267 44.5438 255 255 255
-38.1479 -58.3406 35.6624 255 255 255
2.98277 -20.1888 38.7609 255 255 255
-6.0726 -36.199 40.755 255 255 255
1.89242 -41.8212 35.128 255 255 255
-8.40648 -29.5349 43.4109 255 255 255
-77.5034 -57.6474 36.2615 255 255 255
6.04267 -30.942 45.2574 255 255 255
-3.20131 -13.9036 40.0312 255 255 255
-44.2634 -61.4251 39.8402 255 255 255
0.557565 -12.6227 40.1285 255 255 255
1.85945 -11.4825 39.6632 255 255 255
-28.0846 -60.2116 38.7647 255 255 255
-17.9861 -25.1858 37.9307 255 255 255
12.5993 -8.36872 34.731 255 255 255
-95.1834 -52.6552 31.2028 255 255 255
29.1217 -6.82458 13.1288 255 255 255
8.71069 -35.7096 38.3601 255 255 255
6.06429 -9.12189 38.1105 255 255 255
-3.11112 -17.1179 39.8813 255 255 255
-2.23454 -9.96747 39.5464 255 255 255
-0.577452 -23.2824 41.0194 255 255 255
-39.192 -54.607 30.9957 255 255 255
59.8184 -13.2106 -18.5174 255 255 255
2.10327 -15.5093 39.8457 255 255 255
-35.2296 -58.9581 35.9572 255 255 255
3.02277 -11.2411 39.5553 255 255 255
11.2775 -11.5827 36.5558 255 255 255
-38.6205 -61.0704 39.0024 255 255 255
-31.7662 -58.1354 35.7646 255 255 255
2.64757 -9.41208 39.1165 255 255 255
-44.1224 -55.4443 31.9775 255 255 255
-6.2632 -13.3897 39.4976 255 255 255
-18.479 -27.381 41.0231 255 255 255
-8.60113 -28.4641 41.9136 255 255 255
-6.75726 -30.7478 44.6993 255 255 255
64.5396 -45.686 20.5371 255 255 255
-33.6416 -59.8265 37.4543 255 255 255
-26.7168 -60.1434 37.8394 255 255 255
13.1758 -17.1184 35.2198 255 255 255
9.10996 -24.2377 39.1422 255 255 255
-86.5758 -48.1979 21.6177 255 255 255
13.6181 -30.1938 39.4977 255 255 255
8.6649 -37.5418 36.6566 255 255 255
58.281 -41.7983 15.185 255 255 255
-35.0363 -59.6586 37.0492 255 255 255
-22.9566 -61.5539 39.8589 255 255 255
64.1182 -16.4904 -8.91116 255 255 255
16.0132 -21.9053 35.8577 255 255 255
13.7592 -27.7253 40.4577 255 255 255
-5.82806 -42.6036 34.8811 255 255 255
-32.519 -58.0066 35.2409 255 255 255
58.2655 -42.0347 16.3555 255 255 255
6.76508 -17.1637 38.6319 255 255 255
6.46372 -16.9672 38.733 255 255 255
6.77763 -17.9241 38.3899 255 255 255
10.8112 -32.383 39.5472 255 255 255
-34.4206 -59.8405 37.5866 255 255 255
-30.7187 -57.0463 34.2927 255 255 255
6.35245 -20.2172 38.1024 255 255 255
-6.6633 -30.3856 44.5108 255 255 255
-24.1277 -58.883 36.2129 255 255 255
-15.5517 -16.2309 35.0274 255 255 255
-8.08698 -15.5791 39.1013 255 255 255
12.8818 -9.68961 34.8041 255 255 255
16.8338 -26.9822 39.5972 255 255 255
0.631853 -31.5012 43.1165 255 255 255
-31.0414 -60.2131 37.941 255 255 255
-26.7593 -60.7434 38.5316 255 255 255
-26.76 -60.7369 38.5266 255 255 255
-50.4211 -33.476 4.07154 255 255 255
8.492 -28.3936 41.6389 255 255 255
0.952037 -29.6726 43.3518 255 255 255
-37.7783 -52.0942 27.939 255 255 255
5.06106 -43.2412 34.3729 255 255 255
61.6371 -42.0091 15.9045 255 255 255
-32.1201 -56.5157 33.3449 255 255 255
11.8863 -8.46969 35.1586 255 255 255
21.8073 -18.615 31.0691 255 255 255
-0.860835 -21.8745 39.3232 255 255 255
9.55866 -28.2164 41.5991 255 255 255
13.9918 -39.3849 32.556 255 255 255
7.02161 -39.4069 36.9338 255 255 255
14.6535 -39.9319 31.5671 255 255 255
1.40045 -41.2254 35.7414 255 255 255
7.72778 -41.4673 34.5307 255 255 255
57.9933 -42.6617 15.7265 255 255 255
-25.6436 -59.0689 36.6708 255 255 255
16.126 -8.62091 31.8485 255 255 255
16.0554 -8.59915 32.1688 255 255 255
17.4332 -8.7066 30.445 255 255 255
6.50947 -31.5373 44.347 255 255 255
-31.1666 -59.4992 37.0744 255 255 255
-27.6933 -60.5713 38.2395 255 255 255
-10.2876 -29.2568 42.81 255 255 255
-38.8495 -55.3595 31.8173 255 255 255
23.394 -18.4657 29.2583 255 255 255
-27.3007 -60.1127 37.9215 255 255 255
-7.11834 -29.8971 43.9231 255 255 255
16.9716 -33.6714 35.2407 255 255 255
23.7338 -31.8361 27.8968 255 255 255
19.2493 -31.3424 35.0642 255 255 255
-29.5082 -58.366 35.4812 255 255 255
49.0428 -30.8299 0.497416 255 255 255
-41.1501 -54.9263 31.1185 255 255 255
7.01443 -61.1756 38.9699 255 255 255
42.7553 -44.5013 18.7707 255 255 255
49.4869 -50.5907 27.4504 255 255 255
4.75258 -12.3241 39.3238 255 255 255
-26.6337 -58.6166 36.0908 255 255 255
59.5971 -9.49117 -13.3196 255 255 255
-0.443279 -15.1871 40.1227 255 255 255
-30.9936 -58.226 35.5214 255 255 255
69.1112 -25.7491 -2.77421 255 255 255
3.09308 -12.2291 39.542 255 255 255
45.8285 80.5287 -99.7087 255 255 255
55.9577 84.1502 -103.308 255 255 255
34.4841 66.3769 -102.921 255 255 255
6.33917 69.1327 -84.2279 255 255 255
33.5868 64.9857 -103.276 255 255 255
57.864 67.2027 -116.932 255 255 255
65.2245 75.3779 -115.368 255 255 255
47.0373 82.7827 -98.553 255 255 255
35.6016 80.7179 -93.4413 255 255 255
33.6787 63.539 -103.677 255 255 255
-3.90489 75.3628 -71.276 255 255 255
63.8127 68.0544 -120.538 255 255 255
81.8328 80.0861 -122.816 255 255 255
69.0436 77.9657 -115.838 255 255 255
78.0075 71.2605 -126.541 255 255 255
13.001 68.205 -87.8769 255 255 255
73.6944 69.016 -123.571 255 255 255
15.8254 60.8645 -93.2204 255 255 255
32.8377 67.2721 -101.755 255 255 255
9.30338 59.7204 -91.1973 255 255 255
