ply
format ascii 1.0
element vertex 1286
property float x
property float y
property float z
property uchar red
property uchar green
property uchar blue
end_header
-4.12575 66.9762 -77.4333 255 255 255
11.9298 -38.1131 34.7562 255 255 255
-25.3181 -6.5555 20.1465 255 255 255
7.06637 -2.79326 34.9394 255 255 255
-6.66819 -6.49701 37.9759 255 255 255
-19.1169 -18.2619 35.2349 255 255 255
26.792 20.1781 -63.4294 255 255 255
0.121076 -31.4037 43.3395 255 255 255
58.8403 -3.53554 -14.4326 255 255 255
-48.0757 -7.19082 -29.4992 255 255 255
5.71177 -8.86687 38.2391 255 255 255
-13.9124 -28.2453 42.0723 255 255 255
-2.01864 15.9125 -58.0278 255 255 255
-26.9493 -35.135 24.5153 255 255 255
-51.1872 -6.29251 -29.9124 255 255 255
4.41105 -9.20217 38.6858 255 255 255
56.8928 -43.4135 17.0831 255 255 255
67.545 -26.6484 -4.07578 255 255 255
-35.5129 -59.3228 37.3792 255 255 255
-7.03997 -7.03364 38.0914 255 255 255
60.6195 25.5543 -40.8142 255 255 255
-30.6398 -59.9106 37.9784 255 255 255
63.5649 -14.9124 -9.59291 255 255 255
-33.6834 -59.4384 37.3736 255 255 255
58.3314 -1.78343 -14.3033 255 255 255
-32.9156 -58.8012 36.705 255 255 255
-33.5608 -58.6468 36.1895 255 255 255
-24.6812 -31.7178 29.6578 255 255 255
-15.4067 -19.7351 37.106 255 255 255
-9.58096 -29.3345 43.3603 255 255 255
-19.2935 -25.4988 38.3975 255 255 255
67.3372 -24.081 -6.62758 255 255 255
-11.4884 -36.7466 36.7698 255 255 255
23.3257 -19.7059 30.3774 255 255 255
-14.1942 -8.5288 35.1253 255 255 255
12.0874 -20.5553 37.1673 255 255 255
65.5401 -21.2059 -9.69523 255 255 255
-6.2567 -28.8034 42.3975 255 255 255
60.7722 31.0925 -36.3406 255 255 255
68.9997 -25.9997 -3.54955 255 255 255
68.1551 -24.5091 -4.51797 255 255 255
-7.05043 -6.33177 37.9694 255 255 255
-4.486 -3.75886 37.0387 255 255 255
-0.72996 -5.85195 38.553 255 255 255
-19.7178 -10.0071 30.4022 255 255 255
-25.4809 -10.07 24.6288 255 255 255
-1.20617 -22.525 40.2384 255 255 255
-10.1409 60.9851 -77.9816 255 255 255
61.6982 26.2146 -37.4275 255 255 255
59.7181 29.9541 -40.1797 255 255 255
59.4466 -2.9503 -12.4886 255 255 255
66.1851 -16.7329 -3.91286 255 255 255
-32.5666 -57.8359 35.3907 255 255 255
-82.4016 6.23738 -46.3352 255 255 255
7.56622 -47.4182 31.1761 255 255 255
0.00204515 -4.21883 37.6431 255 255 255
-1.92931 -4.1465 37.5933 255 255 255
-6.61112 -11.9653 39.3415 255 255 255
1.01749 -9.02026 39.4776 255 255 255
-2.06823 -10.2882 39.8326 255 255 255
-1.43197 -5.14606 38.1513 255 255 255
-73.2142 37.3768 -54.0325 255 255 255
-84.9841 32.5793 -51.1203 255 255 255
-58.0289 41.6671 -60.9238 255 255 255
-81.857 33.4693 -57.1804 255 255 255
-33.2305 36.8058 -81.1456 255 255 255
-6.08415 -5.36289 37.5806 255 255 255
-120.438 -12.0259 -23.6004 255 255 255
-84.7129 -11.9653 -23.9439 255 255 255
-68.846 -8.7762 -27.444 255 255 255
-77.9158 1.00076 -40.3694 255 255 255
-69.1659 -8.44042 -28.3637 255 255 255
-49.4221 14.8413 -57.3718 255 255 255
-42.9739 16.8703 -60.7276 255 255 255
-91.8546 -11.3972 -24.7929 255 255 255
-90.8433 -11.2807 -24.6264 255 255 255
-83.0326 10.3094 -52.5012 255 255 255
-93.3515 -8.33191 -27.6934 255 255 255
-84.0893 8.96886 -50.3086 255 255 255
-92.6773 -9.58731 -27.31 255 255 255
59.0344 45.9041 -32.1519 255 255 255
-27.9942 20.9373 -65.4676 255 255 255
-24.4455 20.249 -63.7387 255 255 255
-70.2527 -12.0195 -22.4557 255 255 255
-33.7001 28.3741 -74.0787 255 255 255
-76.4959 3.60426 -43.821 255 255 255
-73.0323 37.3367 -54.3352 255 255 255
-61.5134 17.8787 -62.1503 255 255 255
-121.082 -6.98945 -28.7796 255 255 255
-123.837 -17.0252 -15.5426 255 255 255
-121.855 -11.2998 -23.7958 255 255 255
-46.7316 14.1435 -55.4622 255 255 255
2.47016 -9.18672 39.1813 255 255 255
29.0121 78.3329 -89.2351 255 255 255
-77.3455 38.6105 -47.7651 255 255 255
-68.7096 36.1901 -56.758 255 255 255
43.9557 -43.0709 16.0936 255 255 255
27.7113 70.0393 -99.4475 255 255 255
-83.6432 7.86171 -48.2616 255 255 255
-84.9669 -11.2803 -24.6324 255 255 255
-77.2724 2.47168 -41.796 255 255 255
23.9398 68.9381 -92.0425 255 255 255
18.2007 67.0987 -88.6742 255 255 255
-38.8365 -60.9697 39.0966 255 255 255
-1.61636 17.9794 -60.7822 255 255 255
-44.2879 61.2099 -56.0559 255 255 255
-11.3965 1.00534 30.8035 255 255 255
-14.9832 3.37679 24.967 255 255 255
-48.4351 -59.7815 38.3062 255 255 255
37.2131 42.9171 -91.4593 255 255 255
29.7257 41.177 -90.1559 255 255 255
36.0506 13.2066 -54.7205 255 255 255
6.21699 4.9601 23.8688 255 255 255
8.55 2.30015 29.8441 255 255 255
-19.5159 -1.23975 25.0358 255 255 255
13.2979 -19.7658 36.0606 255 255 255
3.2811 -29.1896 43.0696 255 255 255
8.00292 -36.0975 38.3981 255 255 255
46.1544 -42.7924 16.0076 255 255 255
44.2261 -44.6114 19.2619 255 255 255
0.297199 -50.9976 34.8172 255 255 255
11.0143 2.51063 27.6904 255 255 255
45.349 -43.081 16.3752 255 255 255
41.9835 -47.1099 21.7866 255 255 255
-33.8444 -58.6768 36.7801 255 255 255
50.5401 -52.1249 28.3751 255 255 255
25.8545 -57.1245 34.4907 255 255 255
25.8545 -57.1245 34.4907 255 255 255
-19.5736 29.0036 -74.5336 255 255 255
31.8891 25.2769 -69.275 255 255 255
-12.6482 2.37705 28.6426 255 255 255
-60.4411 -14.2352 -21.7191 255 255 255
-5.6777 -22.3493 39.7911 255 255 255
17.3397 -24.4722 36.6756 255 255 255
56.4535 33.2569 -48.1187 255 255 255
9.27742 1.89699 30.2045 255 255 255
-22.5608 -59.3721 37.2206 255 255 255
60.689 53.7448 -106.391 255 255 255
62.916 48.7552 -100.515 255 255 255
11.9264 -17.7439 35.1483 255 255 255
-5.23687 -43.3173 34.5314 255 255 255
28.1648 -14.7135 23.9424 255 255 255
-32.409 10.5117 -50.7211 255 255 255
-28.025 -59.8981 38.4513 255 255 255
6.75941 -23.0859 40.3883 255 255 255
47.5831 -51.5427 30.4446 255 255 255
-53.8734 37.1281 -66.6948 255 255 255
-14.798 2.99775 25.655 255 255 255
-6.5327 -30.0589 44.388 255 255 255
4.69441 -43.5437 34.2155 255 255 255
3.58917 7.7179 22.4972 255 255 255
6.3796 -51.1025 34.802 255 255 255
4.80563 -31.4912 43.3563 255 255 255
8.18983 -34.9285 39.1326 255 255 255
1.84967 6.39126 21.2903 255 255 255
13.6455 -37.6301 34.5338 255 255 255
26.6526 -20.7562 31.4436 255 255 255
11.5137 -38.56 35.225 255 255 255
23.7467 -17.5908 27.8894 255 255 255
-18.382 -45.004 28.3923 255 255 255
-21.4247 -34.998 31.7667 255 255 255
6.70394 5.52782 24.7922 255 255 255
10.3467 -18.361 37.0852 255 255 255
13.2256 -39.8499 33.0581 255 255 255
12.8714 -18.1795 34.1973 255 255 255
26.2242 -36.7529 21.8276 255 255 255
-9.81058 -47.2809 36.247 255 255 255
22.9042 -23.6862 35.2961 255 255 255
-83.972 0.203186 -39.6074 255 255 255
-86.5416 9.62633 -51.5871 255 255 255
-2.8435 63.3859 -80.1462 255 255 255
2.62146 72.7433 -76.579 255 255 255
31.431 73.773 -94.5608 255 255 255
-80.2873 18.0105 -61.589 255 255 255
6.65262 -27.9728 41.1223 255 255 255
3.6526 -17.8836 39.3613 255 255 255
11.91 -25.0948 37.8453 255 255 255
18.4476 -22.8984 34.7767 255 255 255
58.0406 -13.4455 -20.5438 255 255 255
20.523 -22.58 34.0885 255 255 255
-8.9278 -26.5995 39.8219 255 255 255
8.38212 2.62781 29.0349 255 255 255
-13.4526 -25.7 38.6221 255 255 255
-6.23394 -27.1934 40.6701 255 255 255
-38.4609 -56.0507 33.1153 255 255 255
-17.2306 -28.2477 41.2332 255 255 255
24.6335 33.1952 -79.1255 255 255 255
-4.68284 -18.3732 39.3742 255 255 255
-116.806 -11.5633 -23.8195 255 255 255
-119.889 -5.90815 -30.4581 255 255 255
-115.666 -13.1651 -21.6007 255 255 255
-25.3875 20.806 -64.5601 255 255 255
-13.9508 -9.81478 35.7912 255 255 255
-82.113 9.27423 -48.9352 255 255 255
65.0344 -20.3889 -9.1116 255 255 255
56.0314 -39.5478 12.8338 255 255 255
56.8554 1.26392 -16.5711 255 255 255
-23.7351 -59.4443 38.1179 255 255 255
19.1157 -41.544 29.6302 255 255 255
-2.61711 -41.8555 35.2052 255 255 255
-37.4277 -58.5736 36.2751 255 255 255
1.99206 -29.0908 42.8955 255 255 255
-23.094 -61.9728 41.0427 255 255 255
56.3144 -50.439 26.7127 255 255 255
59.11 -48.4013 29.3104 255 255 255
55.2285 -48.0916 22.3809 255 255 255
57.6891 -39.0875 11.8852 255 255 255
-4.24019 -62.4936 41.0724 255 255 255
63.9344 -48.7771 25.2973 255 255 255
-37.6053 -24.2256 6.97839 255 255 255
-45.0827 -39.722 11.5838 255 255 255
-22.3657 -61.9729 40.6402 255 255 255
58.4402 -42.3747 15.0048 255 255 255
-20.9327 -62.3144 41.2821 255 255 255
17.088 -39.8263 30.055 255 255 255
-80.9392 -55.9585 34.571 255 255 255
-40.0936 -59.7413 37.9754 255 255 255
24.0366 -20.2326 31.1733 255 255 255
59.9169 43.3724 -32.2502 255 255 255
-9.93362 6.60136 22.8458 255 255 255
-36.8419 6.66166 -46.711 255 255 255
-0.253433 -4.80606 37.9566 255 255 255
6.8875 -6.25914 36.5647 255 255 255
-30.5162 -16.8846 27.7663 255 255 255
-25.5676 -22.8317 35.2391 255 255 255
-0.704703 -31.4687 43.2587 255 255 255
-17.8503 -34.9536 35.459 255 255 255
16.0317 -30.3942 38.2418 255 255 255
-27.2198 -31.1292 27.2512 255 255 255
13.7006 -39.5505 32.7588 255 255 255
-19.5187 -1.29701 25.0269 255 255 255
-20.1297 -2.56731 25.4236 255 255 255
-20.902 -5.61176 26.7883 255 255 255
-14.434 -20.5715 38.0471 255 255 255
15.7533 -34.3405 35.3048 255 255 255
-22.3575 -6.42709 24.4257 255 255 255
-61.3801 -32.0292 1.05592 255 255 255
10.4471 -38.5559 35.1641 255 255 255
-52.342 -10.0905 -25.2031 255 255 255
58.7431 -3.98681 -14.0591 255 255 255
-11.6336 -19.5088 37.1538 255 255 255
10.4162 -21.2113 37.7558 255 255 255
-21.3626 -9.8017 27.9824 255 255 255
0.577138 -31.0018 43.5115 255 255 255
-6.52151 -30.0916 44.219 255 255 255
10.2104 -36.8665 36.3503 255 255 255
13.7006 -39.5505 32.7588 255 255 255
-10.8784 -22.3586 40.1595 255 255 255
-3.80017 -14.3566 39.845 255 255 255
-60.4581 -32.5422 1.21429 255 255 255
-44.5804 -55.8758 32.5082 255 255 255
-19.0001 -23.8028 36.6168 255 255 255
-32.8966 -14.5077 24.681 255 255 255
59.2386 64.0272 -119.566 255 255 255
13.746 54.4366 -97.4045 255 255 255
27.1015 38.585 -86.9147 255 255 255
-60.9101 29.5809 -62.2614 255 255 255
-60.5859 28.5053 -63.2718 255 255 255
-61.1622 28.1424 -64.4665 255 255 255
-62.0063 27.8065 -64.2312 255 255 255
56.5342 25.5363 -49.5016 255 255 255
-63.8474 26.8677 -62.1264 255 255 255
-70.2901 26.2732 -65.1499 255 255 255
57.5817 20.262 -50.1996 255 255 255
0.183154 20.8114 -64.1026 255 255 255
56.7458 19.8931 -50.0104 255 255 255
58.2991 19.6294 -49.1148 255 255 255
58.7533 18.4859 -47.9371 255 255 255
38.7953 19.3245 -62.0907 255 255 255
21.9421 19.2405 -62.3302 255 255 255
59.934 17.8424 -46.341 255 255 255
58.4484 16.9456 -49.7391 255 255 255
58.5198 16.5457 -48.9343 255 255 255
-58.6534 14.0008 -56.6563 255 255 255
-47.2242 12.448 -54.5121 255 255 255
-45.637 12.3639 -53.8706 255 255 255
-40.2619 10.9811 -52.8343 255 255 255
-30.8833 10.5311 -51.4407 255 255 255
-40.2464 10.4514 -51.3357 255 255 255
6.18069 5.01071 24.2058 255 255 255
62.7192 5.69558 -44.2408 255 255 255
56.8696 0.35312 -16.3428 255 255 255
-28.9941 -2.45171 8.85681 255 255 255
-10.5853 -2.44313 34.1636 255 255 255
-54.3804 -5.4081 -31.0517 255 255 255
1.69826 -5.0775 37.8601 255 255 255
-54.4257 -7.28997 -29.0333 255 255 255
9.95351 -6.07584 35.0969 255 255 255
58.7223 -14.3006 -19.5464 255 255 255
60.534 -17.8215 -14.9565 255 255 255
-63.6553 -17.7638 -15.7483 255 255 255
-64.5959 -18.3958 -15.1039 255 255 255
11.4137 -20.0967 36.6384 255 255 255
16.9718 -23.8 35.8212 255 255 255
54.8414 -39.286 11.3288 255 255 255
58.8604 -39.8031 12.1178 255 255 255
58.1496 -41.6447 14.3757 255 255 255
56.2737 -44.036 17.8505 255 255 255
-18.3665 -46.5454 33.0702 255 255 255
38.8768 -52.0846 28.3049 255 255 255
40.1628 -52.722 28.5161 255 255 255
34.5926 -54.8853 31.7312 255 255 255
-31.0377 -60.2634 38.6396 255 255 255
-22.7826 -60.465 38.7156 255 255 255
-26.5188 -60.9391 39.2961 255 255 255
-21.2541 -61.9756 40.9593 255 255 255
-20.9344 -62.3044 41.2837 255 255 255
61.7169 64.7108 -120.644 255 255 255
59.9171 64.1083 -119.109 255 255 255
26.0076 53.1812 -105.105 255 255 255
30.5178 50.2093 -101.149 255 255 255
25.1225 40.4938 -89.2479 255 255 255
25.0913 40.5369 -89.3702 255 255 255
34.5985 34.6812 -82.4706 255 255 255
-59.987 30.8548 -62.9904 255 255 255
56.9767 25.7974 -49.6158 255 255 255
-0.854674 20.9023 -64.6861 255 255 255
60.7335 18.9691 -39.533 255 255 255
-80.0786 18.7525 -63.0235 255 255 255
60.8321 16.6795 -45.0674 255 255 255
-36.5112 17.1308 -60.2195 255 255 255
59.9428 14.4074 -49.382 255 255 255
-44.2837 14.2231 -56.0863 255 255 255
59.515 13.3456 -49.1195 255 255 255
57.5905 11.9208 -52.4972 255 255 255
-45.5264 11.4678 -52.6595 255 255 255
-32.4147 10.0569 -50.9387 255 255 255
60.8942 -8.65773 -10.5602 255 255 255
-46.5194 -9.3909 -26.273 255 255 255
63.988 -14.3198 -6.78785 255 255 255
61.7482 -14.9585 -13.9694 255 255 255
49.7488 -27.5932 -2.96823 255 255 255
-21.0112 -21.9499 33.7385 255 255 255
-56.4106 -30.6661 0.643263 255 255 255
47.7083 -33.6877 5.22104 255 255 255
6.41505 -26.192 39.9242 255 255 255
51.5402 -37.9303 10.5107 255 255 255
-63.699 -38.9554 11.2357 255 255 255
42.8277 -50.3065 25.4124 255 255 255
42.8277 -50.3065 25.4124 255 255 255
54.2074 -51.015 27.2931 255 255 255
43.1814 -50.943 26.8632 255 255 255
-21.1684 -58.0358 35.7104 255 255 255
-25.9189 -59.3497 37.2945 255 255 255
-24.3037 -61.3626 39.8022 255 255 255
28.6066 58.1148 -104.287 255 255 255
25.5189 47.3527 -98.8075 255 255 255
60.9815 33.538 -35.3677 255 255 255
-80.6188 18.4626 -62.487 255 255 255
-29.283 17.5814 -60.2629 255 255 255
59.6283 12.8893 -48.0695 255 255 255
-42.6724 9.05297 -49.9612 255 255 255
23.1286 -9.54729 22.7205 255 255 255
29.9188 -10.137 17.6407 255 255 255
60.293 -15.3496 -18.8237 255 255 255
-56.1668 -31.8241 2.42532 255 255 255
-57.2741 -31.9434 2.46423 255 255 255
-10.821 -27.0511 40.3759 255 255 255
57.9129 -38.075 11.5067 255 255 255
54.8231 -38.8309 11.4764 255 255 255
59.4331 -43.8312 17.7313 255 255 255
56.3166 -44.91 19.0191 255 255 255
35.3284 -51.148 27.078 255 255 255
-29.3652 -59.4066 37.3226 255 255 255
-26.4534 -60.6091 38.9967 255 255 255
-26.8604 -61.262 40.1069 255 255 255
-4.06664 -62.2616 40.6182 255 255 255
28.6735 54.7568 -106.473 255 255 255
28.3317 53.3951 -104.702 255 255 255
60.4041 43.9408 -93.6341 255 255 255
56.1801 39.3008 -88.5036 255 255 255
-56.6254 34.9321 -67.556 255 255 255
-58.5025 29.8837 -64.3976 255 255 255
-32.6323 12.0196 -52.8539 255 255 255
-38.0627 11.9201 -53.5946 255 255 255
-31.8161 9.5476 -50.8384 255 255 255
-36.9415 8.9668 -48.9817 255 255 255
-33.9673 8.8095 -49.5219 255 255 255
-2.38056 -29.0239 42.5819 255 255 255
55.5935 -38.4971 10.5151 255 255 255
66.5643 -45.9909 21.4015 255 255 255
50.9232 -46.781 20.5741 255 255 255
2.35012 -43.8478 34.0098 255 255 255
43.3723 -50.7256 26.102 255 255 255
42.7612 -51.6727 28.0247 255 255 255
68.2959 48.3566 -102.342 255 255 255
61.7163 46.2406 -96.329 255 255 255
-40.7671 9.2614 -50.2077 255 255 255
-63.8119 27.7615 -63.9006 255 255 255
-63.8119 27.7615 -63.9006 255 255 255
-5.58228 -62.0452 39.9625 255 255 255
-63.4581 31.4083 -63.6118 255 255 255
-62.0974 29.5269 -61.2737 255 255 255
-78.9887 24.0846 -63.9633 255 255 255
-59.9199 29.3605 -63.116 255 255 255
14.8694 -35.6878 34.5355 255 255 255
59.5514 8.68692 -5.72229 255 255 255
15.05 -16.5887 34.121 255 255 255
-33.5517 -54.6229 31.4495 255 255 255
-37.6636 -62.8953 41.4808 255 255 255
0.0797396 64.8152 -81.5629 255 255 255
20.27 -43.3665 31.2633 255 255 255
58.7548 82.9954 -106.703 255 255 255
-35.7059 35.1787 -80.2616 255 255 255
20.6481 73.1214 -87.8977 255 255 255
51.8285 81.8346 -103.873 255 255 255
20.9831 -13.6748 27.9965 255 255 255
10.0912 -10.4214 36.5779 255 255 255
2.27447 -3.02155 36.6228 255 255 255
-79.0361 -48.4905 24.3746 255 255 255
-9.03273 -17.2408 38.5606 255 255 255
66.8476 73.7535 -117.132 255 255 255
-51.0331 35.4376 -72.1521 255 255 255
61.0829 83.1252 -107.183 255 255 255
68.6269 73.8494 -119.47 255 255 255
54.7761 76.5803 -108.38 255 255 255
-12.2752 -16.8633 37.1323 255 255 255
7.04242 -6.89003 37.13 255 255 255
39.8093 65.4819 -106.318 255 255 255
17.4564 64.4844 -93.3897 255 255 255
-62.3653 53.5575 -49.9657 255 255 255
9.88172 -10.7687 36.883 255 255 255
60.3575 69.9092 -116.115 255 255 255
27.9714 41.2211 -90.181 255 255 255
61.3331 73.1552 -114.613 255 255 255
44.3649 77.8266 -100.358 255 255 255
-0.42103 -9.17126 39.5147 255 255 255
27.3057 67.3316 -98.5846 255 255 255
-10.3529 -6.83825 37.128 255 255 255
5.9843 -27.979 41.2283 255 255 255
34.3447 57.4223 -109.19 255 255 255
33.8588 63.4308 -104.683 255 255 255
18.107 72.6513 -88.2519 255 255 255
11.3118 68.539 -86.8113 255 255 255
24.7935 74.9243 -89.8202 255 255 255
33.3084 62.6917 -105.124 255 255 255
59.7548 81.8167 -107.083 255 255 255
60.447 82.4391 -106.814 255 255 255
36.6149 73.2073 -97.3387 255 255 255
-4.68256 -18.3744 39.3405 255 255 255
-11.1705 -23.0655 39.8573 255 255 255
48.1877 -33.0149 3.31384 255 255 255
-65.7807 -37.117 8.63746 255 255 255
56.1366 40.4509 -89.6391 255 255 255
24.3758 68.071 -92.8313 255 255 255
35.841 43.0545 -93.4563 255 255 255
57.6572 26.6995 -49.2515 255 255 255
-29.6999 56.0825 -68.8315 255 255 255
-25.9403 -5.11383 18.2194 255 255 255
-20.0956 -12.1843 30.5856 255 255 255
-3.04555 62.4118 -80.5891 255 255 255
-17.7854 -26.2065 39.0846 255 255 255
-13.7283 -29.0015 41.9247 255 255 255
-13.8486 -2.80523 32.4379 255 255 255
-124.282 -15.7291 -17.1623 255 255 255
-122.972 -17.8602 -14.4556 255 255 255
-124.767 -16.1231 -16.8342 255 255 255
-121.075 -20.6124 -11.257 255 255 255
-57.6689 10.0292 -51.5484 255 255 255
-51.6969 12.3307 -53.9152 255 255 255
-118.836 -7.0171 -28.2851 255 255 255
-75.1738 -2.51666 -35.8442 255 255 255
-123.511 -16.5049 -16.2983 255 255 255
-71.4514 -7.87312 -28.8116 255 255 255
-71.4514 -7.87312 -28.8116 255 255 255
-66.7448 -7.78169 -28.4209 255 255 255
-81.907 28.0798 -62.5108 255 255 255
-70.2242 -14.3623 -19.9977 255 255 255
49.7967 -30.4357 0.239437 255 255 255
-14.4074 -3.62279 32.6382 255 255 255
-125.818 -14.9667 -18.2433 255 255 255
-130.236 54.0001 -101.827 255 255 255
33.9769 13.0848 -54.2311 255 255 255
39.6491 17.3426 -59.2759 255 255 255
34.6164 39.5291 -88.1879 255 255 255
61.4233 75.79 -112.511 255 255 255
-49.8109 -27.3772 -3.177 255 255 255
-22.7601 18.1224 -61.9291 255 255 255
-62.9443 -21.9588 -10.848 255 255 255
57.6329 84.5201 -103.33 255 255 255
-15.0068 0.292865 28.7068 255 255 255
6.90372 -49.7461 36.1348 255 255 255
-38.3541 -58.8414 36.1568 255 255 255
60.7677 73.7699 -113.841 255 255 255
-86.9884 -12.9249 -23.7549 255 255 255
58.0203 78.1599 -108.648 255 255 255
-112.458 -30.9517 2.28323 255 255 255
-82.2305 29.1847 -60.42 255 255 255
-70.4893 -14.068 -21.7612 255 255 255
-58.5568 -3.22527 -34.3111 255 255 255
28.3639 72.0956 -94.3298 255 255 255
44.0198 69.5177 -106.088 255 255 255
25.8764 73.0174 -93.1153 255 255 255
46.7488 73.3173 -110.925 255 255 255
-33.0684 21.2592 -64.7802 255 255 255
-34.2647 28.7316 -74.551 255 255 255
32.2543 27.6406 -73.2378 255 255 255
-39.0192 -52.1377 28.0447 255 255 255
-27.834 23.4455 -69.9021 255 255 255
-17.146 32.2515 -78.6315 255 255 255
-46.661 13.5846 -56.0568 255 255 255
-27.8411 22.5729 -66.5307 255 255 255
11.46 -21.4178 38.0861 255 255 255
-20.5319 29.1359 -74.7746 255 255 255
-34.8696 -56.3355 33.3496 255 255 255
-45.7327 9.60378 -50.9895 255 255 255
-31.3318 6.68341 -46.4566 255 255 255
-41.159 20.0628 -63.4263 255 255 255
9.28121 -5.36215 35.1683 255 255 255
-83.7984 11.1842 -53.4124 255 255 255
64.0207 -13.8804 -6.68588 255 255 255
36.9646 67.4049 -103.818 255 255 255
20.4473 -15.912 30.9932 255 255 255
56.1742 15.6609 -8.31422 255 255 255
55.8143 14.0927 -10.6174 255 255 255
-26.5796 -58.2505 36.3452 255 255 255
13.593 -29.14 40.534 255 255 255
22.154 -9.2111 22.1613 255 255 255
-10.3857 -47.3808 36.8892 255 255 255
34.5826 13.9673 -54.9191 255 255 255
20.1359 -22.0369 33.5048 255 255 255
1.76074 7.14344 21.7277 255 255 255
24.8525 -15.1027 25.1112 255 255 255
2.85856 23.2782 -66.5705 255 255 255
4.46119 -8.43135 38.4126 255 255 255
-32.5914 -57.0144 34.6466 255 255 255
-17.5238 2.40648 22.999 255 255 255
-18.54 20.1791 -62.9311 255 255 255
8.30034 1.98237 28.8276 255 255 255
64.4124 -15.094 -5.39462 255 255 255
62.4203 -17.0618 -13.1118 255 255 255
8.67291 -0.941373 32.6557 255 255 255
-20.0772 11.671 -53.2105 255 255 255
69.9275 -28.3471 0.313623 255 255 255
-4.40444 -44.0332 34.1594 255 255 255
10.2653 -39.571 34.2332 255 255 255
-13.727 -36.3038 36.0166 255 255 255
-31.7292 -15.4893 25.929 255 255 255
28.3762 44.767 -95.5282 255 255 255
34.5665 31.2155 -77.9379 255 255 255
25.9707 36.2793 -84.0905 255 255 255
-28.025 -59.8981 38.4513 255 255 255
52.4561 86.7215 -100.582 255 255 255
32.8139 72.1211 -95.9231 255 255 255
31.3689 71.704 -95.4096 255 255 255
44.5581 83.5976 -96.315 255 255 255
-0.0402149 22.1497 -65.7823 255 255 255
-72.6474 -1.51833 -36.7939 255 255 255
-28.6696 41.1968 -80.7194 255 255 255
32.9052 41.4206 -89.4859 255 255 255
56.4316 14.9935 -9.64904 255 255 255
-16.7396 -15.9596 34.1197 255 255 255
58.9969 -39.3553 14.5114 255 255 255
-17.8716 12.1 -51.1653 255 255 255
-27.2414 -56.7299 34.4625 255 255 255
9.29243 4.8001 25.4708 255 255 255
5.02936 -48.7723 36.1412 255 255 255
-3.8471 -32.1372 42.5251 255 255 255
6.38246 67.5418 -84.3568 255 255 255
-53.4986 -7.217 -29.0917 255 255 255
-52.3471 11.2343 -52.568 255 255 255
-77.6251 3.17291 -43.2279 255 255 255
-76.4959 3.60426 -43.821 255 255 255
-114.983 -12.5305 -21.461 255 255 255
58.3669 88.477 -101.655 255 255 255
-24.7311 19.2165 -61.6757 255 255 255
-37.9344 18.8591 -62.3222 255 255 255
23.6526 -19.6336 30.2519 255 255 255
61.7201 -46.0052 20.8821 255 255 255
67.4289 -45.3717 21.289 255 255 255
-26.283 -58.5965 36.77 255 255 255
57.3249 -43.6875 17.2185 255 255 255
25.7896 -21.2226 32.3157 255 255 255
16.757 -5.76367 30.016 255 255 255
56.9512 -49.8824 25.7671 255 255 255
17.8148 -21.7793 34.3854 255 255 255
-48.429 -5.47183 -30.9622 255 255 255
-57.3128 17.3767 -60.2574 255 255 255
-40.1715 8.36715 -48.866 255 255 255
53.1014 -43.7115 16.5546 255 255 255
-34.2994 57.44 -64.403 255 255 255
67.0766 83.4526 -110.259 255 255 255
51.3594 79.7752 -103.51 255 255 255
26.732 67.8614 -96.9077 255 255 255
27.0135 69.9847 -93.7865 255 255 255
18.8593 66.6919 -91.5691 255 255 255
-9.73493 -9.90368 38.018 255 255 255
25.8183 19.0775 -62.0615 255 255 255
50.3157 79.3231 -102.451 255 255 255
20.262 71.1722 -89.8831 255 255 255
58.6514 83.453 -105.453 255 255 255
-10.7721 3.49395 28.4132 255 255 255
-75.5644 -1.39526 -38.8038 255 255 255
-34.5591 9.90696 -50.8207 255 255 255
30.5774 23.5168 -67.5569 255 255 255
-9.56917 -0.15357 32.9 255 255 255
-35.4224 -56.5721 33.7247 255 255 255
55.9817 23.549 -53.366 255 255 255
30.8663 24.1842 -68.6475 255 255 255
-32.0686 18.9332 -61.9701 255 255 255
17.1835 -13.7121 32.0122 255 255 255
-40.013 -52.6174 29.0198 255 255 255
-29.7868 19.5674 -62.7309 255 255 255
-85.4455 4.95326 -45.8702 255 255 255
-0.748582 -61.1562 39.8595 255 255 255
1.13335 23.9536 -67.7793 255 255 255
68.5989 -25.2973 -1.20564 255 255 255
56.4205 2.49871 -16.7384 255 255 255
-21.0932 -61.9759 41.0305 255 255 255
76.4477 71.2376 -122.704 255 255 255
19.7537 -19.6147 32.9861 255 255 255
-3.14523 -25.985 41.0579 255 255 255
11.2008 -38.454 33.7914 255 255 255
-7.71673 4.40046 24.5077 255 255 255
38.9304 27.1821 -72.4126 255 255 255
19.7024 67.6921 -90.3733 255 255 255
-87.6382 -47.5481 23.8278 255 255 255
27.9136 -34.3852 22.6398 255 255 255
46.9004 83.3141 -99.8822 255 255 255
-29.2461 23.9086 -69.8962 255 255 255
73.3647 70.2492 -123.055 255 255 255
41.2424 -46.6273 21.2174 255 255 255
59.0899 86.9025 -104.007 255 255 255
-6.77739 75.035 -69.9897 255 255 255
54.566 85.2059 -102.392 255 255 255
74.3587 86.2656 -113.464 255 255 255
57.5173 85.8925 -102.895 255 255 255
74.1718 85.4612 -113.969 255 255 255
52.1563 81.9885 -102.531 255 255 255
17.3734 80.9437 -81.4348 255 255 255
23.2434 73.124 -91.3584 255 255 255
78.4671 71.2321 -128.342 255 255 255
33.0556 69.6413 -99.9966 255 255 255
61.3052 69.6673 -116.809 255 255 255
68.6314 69.2394 -122.165 255 255 255
50.2067 52.7763 -105.144 255 255 255
-13.6787 -5.88561 34.592 255 255 255
-20.7599 -61.6796 40.1255 255 255 255
-21.4887 -61.3886 40.5129 255 255 255
8.44201 -20.0786 37.7403 255 255 255
27.952 30.7902 -76.3564 255 255 255
-113.706 -14.3702 -19.41 255 255 255
-87.2449 -14.1614 -21.0774 255 255 255
-11.6979 -21.5108 39.0913 255 255 255
2.91631 21.2036 -64.1896 255 255 255
17.5855 -26.6334 39.1734 255 255 255
-19.2889 -25.5901 38.176 255 255 255
-17.3442 -44.5139 28.7806 255 255 255
26.3782 -12.7136 23.217 255 255 255
3.16148 -46.1103 31.443 255 255 255
4.24716 -47.6234 32.1344 255 255 255
43.6456 -42.4195 15.7141 255 255 255
39.0273 -50.1784 25.3238 255 255 255
51.0897 -48.7508 25.1071 255 255 255
-1.60724 20.4298 -63.8776 255 255 255
28.6108 72.7805 -94.4523 255 255 255
47.9201 78.3432 -102.625 255 255 255
8.97932 -23.2998 39.5897 255 255 255
56.078 39.2974 -88.1349 255 255 255
-2.48211 6.35198 21.8879 255 255 255
-87.9253 -59.0738 40.1688 255 255 255
-78.9563 -61.9632 42.9908 255 255 255
-32.6317 26.6546 -72.223 255 255 255
-40.2522 15.9715 -58.7757 255 255 255
43.871 -41.1933 14.4942 255 255 255
-84.9254 -12.904 -22.6282 255 255 255
-21.6364 -37.6718 29.0535 255 255 255
-29.3441 -59.3593 37.4818 255 255 255
-20.934 -22.899 35.1102 255 255 255
-8.23423 -11.476 38.7672 255 255 255
-16.8515 -40.972 30.7948 255 255 255
65.8666 -47.5654 23.3638 255 255 255
58.5551 -12.3404 -21.0666 255 255 255
23.3137 25.4635 -69.4138 255 255 255
-5.6777 -22.3493 39.7911 255 255 255
24.797 -40.8841 27.8278 255 255 255
-26.7807 21.1675 -64.7309 255 255 255
-56.6006 33.9795 -67.8892 255 255 255
-4.34874 -29.0314 42.6612 255 255 255
1.11281 17.0938 -59.184 255 255 255
61.595 68.8836 -117.93 255 255 255
58.059 77.3303 -109.205 255 255 255
54.0563 -32.6558 3.76462 255 255 255
60.9009 82.9429 -108.536 255 255 255
18.9119 65.0847 -93.6319 255 255 255
61.6247 68.9024 -118.072 255 255 255
67.4424 50.121 -102.422 255 255 255
31.5938 23.5562 -68.003 255 255 255
12.112 59.9841 -93.1087 255 255 255
69.7043 77.0515 -116.632 255 255 255
24.4908 34.8425 -83.0957 255 255 255
48.594 -30.1186 -0.0714795 255 255 255
33.9078 39.7633 -88.3136 255 255 255
13.3689 -29.728 40.1423 255 255 255
-34.5049 3.48664 -42.8679 255 255 255
24.0366 -20.2326 31.1733 255 255 255
13.1133 -27.8647 40.9013 255 255 255
-20.4549 10.9227 -51.2369 255 255 255
63.0007 -15.976 -11.0692 255 255 255
-67.6453 -12.8447 -22.5334 255 255 255
13.9319 0.0131859 27.5298 255 255 255
-3.54181 -11.8527 39.8014 255 255 255
-98.9184 -51.9363 29.3446 255 255 255
-38.813 9.53349 -49.4649 255 255 255
40.1744 19.7288 -62.9307 255 255 255
40.0173 73.1715 -100.971 255 255 255
38.8883 18.1033 -59.5403 255 255 255
33.1312 72.2832 -98.6734 255 255 255
25.4429 69.486 -93.1955 255 255 255
38.8966 72.6847 -101.363 255 255 255
22.111 -22.3101 34.1843 255 255 255
3.21896 -28.1319 41.5268 255 255 255
-43.3177 -52.8869 28.9412 255 255 255
-33.4902 14.9021 -56.9708 255 255 255
19.1088 -21.7436 33.4933 255 255 255
-33.2455 18.3618 -61.8911 255 255 255
-26.043 21.292 -63.8894 255 255 255
53.2969 -40.3328 12.4348 255 255 255
57.6516 39.2028 -86.8245 255 255 255
-60.8653 30.2755 -61.5741 255 255 255
35.7595 71.6175 -98.5162 255 255 255
31.577 70.4693 -96.6809 255 255 255
18.6679 66.215 -92.8633 255 255 255
68.6635 69.2552 -122.278 255 255 255
-31.3779 55.9852 -67.6439 255 255 255
-88.6239 20.0728 -58.6889 255 255 255
-54.8903 56.72 -51.2597 255 255 255
21.5206 73.2907 -90.8787 255 255 255
-24.6167 -10.9971 25.7332 255 255 255
64.1934 68.0783 -121.181 255 255 255
34.2147 66.1956 -102.277 255 255 255
29.5101 27.9081 -73.004 255 255 255
-38.2818 -52.0395 28.22 255 255 255
-3.80933 -62.2546 40.9588 255 255 255
21.7855 -33.688 29.3664 255 255 255
-26.7487 -59.7059 37.7158 255 255 255
-22.0645 -22.8446 35.3793 255 255 255
-7.91262 -3.39704 36 255 255 255
-20.9762 -15.6163 31.8525 255 255 255
13.2894 -19.7457 36.106 255 255 255
-9.06375 6.27482 24.1803 255 255 255
21.0666 -27.0877 35.6549 255 255 255
25.7537 42.1162 -91.1684 255 255 255
-27.8732 -56.933 35.013 255 255 255
-16.3212 30.4044 -76.327 255 255 255
-46.1391 -10.5873 -23.016 255 255 255
22.3457 24.7429 -69.6439 255 255 255
-41.7373 -52.6877 28.6705 255 255 255
32.8505 66.9098 -101.727 255 255 255
34.0786 26.6647 -71.1338 255 255 255
-33.0718 -6.64698 14.2451 255 255 255
-12.0151 1.16558 30.087 255 255 255
29.6377 41.0664 -89.5828 255 255 255
23.3049 -28.6079 31.2285 255 255 255
26.0682 -56.9885 33.817 255 255 255
-16.3798 29.4909 -76.1219 255 255 255
64.5392 -45.8038 20.5379 255 255 255
-12.6472 -19.1868 36.6575 255 255 255
-26.9444 -20.6156 32.6849 255 255 255
66.9178 -19.3726 -1.90214 255 255 255
23.8188 -9.53025 22.6487 255 255 255
61.4702 -9.70115 -9.18389 255 255 255
-28.064 -11.47 20.9119 255 255 255
-65.4294 15.8129 -58.8968 255 255 255
21.2737 -21.7233 33.2236 255 255 255
8.49055 -21.7827 38.9371 255 255 255
28.0235 -17.5377 27.1131 255 255 255
51.8442 -40.4536 12.416 255 255 255
-38.739 45.2711 -70.8093 255 255 255
4.77982 -61.44 39.5266 255 255 255
-91.6523 -43.0193 17.2941 255 255 255
53.3663 80.1667 -103.609 255 255 255
58.6519 12.8948 -6.37987 255 255 255
21.5134 22.8928 -67.4951 255 255 255
11.1043 -26.804 39.8725 255 255 255
59.6978 -49.2664 25.7856 255 255 255
17.8146 -27.6531 40.6368 255 255 255
24.7301 -15.6905 25.2527 255 255 255
-17.3218 28.7944 -74.5459 255 255 255
8.01729 47.6162 -98.0231 255 255 255
-27.9942 20.9373 -65.4676 255 255 255
23.1775 70.4544 -90.8838 255 255 255
50.331 79.165 -104.082 255 255 255
48.8846 71.8626 -111.477 255 255 255
62.6053 69.1625 -119.22 255 255 255
71.9346 70.6899 -121.361 255 255 255
37.2643 72.3119 -99.517 255 255 255
21.835 70.1202 -89.9495 255 255 255
17.3891 65.6971 -91.6986 255 255 255
62.6053 69.1625 -119.22 255 255 255
22.4095 71.6116 -91.365 255 255 255
61.5847 85.0775 -105.896 255 255 255
65.1146 71.5141 -117.075 255 255 255
26.2795 71.2719 -92.3745 255 255 255
14.2291 67.9522 -91.7669 255 255 255
64.6002 69.9935 -118.699 255 255 255
80.3361 71.6815 -128.464 255 255 255
25.2279 70.7603 -91.4716 255 255 255
37.2008 72.9452 -94.5494 255 255 255
43.5274 75.5804 -104.172 255 255 255
78.9021 71.509 -127.11 255 255 255
80.3289 70.8345 -131.636 255 255 255
44.3649 77.8266 -100.358 255 255 255
43.5534 75.5817 -104.129 255 255 255
36.0973 76.1697 -97.8386 255 255 255
38.5426 72.732 -100.193 255 255 255
25.3295 74.1575 -91.7107 255 255 255
36.39 72.8707 -93.8428 255 255 255
19.2746 70.4184 -89.5476 255 255 255
14.2291 67.9522 -91.7669 255 255 255
-32.0329 -59.1651 37.254 255 255 255
23.995 18.7605 -61.7083 255 255 255
41.2372 25.4021 -70.0784 255 255 255
23.995 18.7605 -61.7083 255 255 255
-38.2407 -56.5998 33.6614 255 255 255
29.6128 28.0015 -73.6233 255 255 255
51.0752 -42.1225 14.9545 255 255 255
-21.3221 -59.3323 37.2126 255 255 255
23.4872 24.8476 -69.6994 255 255 255
-34.3743 -61.9813 40.4211 255 255 255
45.3903 -46.6554 20.6024 255 255 255
-41.2283 -54.1643 30.3439 255 255 255
27.5038 -57.2592 34.3901 255 255 255
30.0733 25.4329 -70.1198 255 255 255
-18.0826 12.6995 -54.2475 255 255 255
-22.228 13.4414 -54.8151 255 255 255
-19.3773 13.4611 -55.0285 255 255 255
51.5605 -42.2133 15.0626 255 255 255
-0.135884 17.7335 -60.377 255 255 255
28.7376 23.5148 -67.9555 255 255 255
-37.1551 -61.1933 39.3053 255 255 255
13.8356 -1.53191 29.787 255 255 255
-12.1362 3.91556 26.7004 255 255 255
59.3658 -14.3762 -19.5446 255 255 255
-30.4379 -58.6259 36.7321 255 255 255
39.2755 -52.7327 29.7415 255 255 255
15.9633 -22.5933 35.8713 255 255 255
44.0296 -42.4902 15.7035 255 255 255
-12.0202 4.19991 26.52 255 255 255
65.055 69.6668 -119.869 255 255 255
-5.84284 -29.272 43.2204 255 255 255
1.15159 21.7709 -64.5367 255 255 255
30.3206 27.5839 -73.4593 255 255 255
40.4271 18.4796 -60.4816 255 255 255
-14.6006 -19.7544 37.1004 255 255 255
-112.184 -30.6088 1.59171 255 255 255
6.49353 -47.4633 36.5368 255 255 255
-44.1666 60.9809 -55.2697 255 255 255
40.3827 20.2014 -62.7282 255 255 255
-49.0365 -27.0875 -3.85562 255 255 255
46.22 -44.2195 17.8734 255 255 255
-83.0749 6.9329 -48.4003 255 255 255
15.107 -9.34759 33.2669 255 255 255
-81.6333 9.7624 -51.8672 255 255 255
-34.2757 16.9344 -59.5608 255 255 255
-85.5494 -60.9146 42.6826 255 255 255
-45.1219 14.5923 -57.2042 255 255 255
8.93686 -30.8525 41.8313 255 255 255
14.3557 -29.8165 39.2938 255 255 255
-89.7048 -55.1307 34.3633 255 255 255
-95.661 -52.5101 31.8384 255 255 255
-41.7081 18.9956 -63.2077 255 255 255
26.1069 35.0371 -82.0534 255 255 255
-88.0972 -54.0327 32.6839 255 255 255
-78.1482 -57.1007 35.8965 255 255 255
3.358 -16.0527 39.7459 255 255 255
-22.9328 28.3834 -73.2482 255 255 255
-6.85668 -61.9002 40.2168 255 255 255
-41.0184 -52.2811 28.4737 255 255 255
-0.936847 21.7985 -64.7772 255 255 255
-12.2883 -26.304 39.3571 255 255 255
-86.8253 -55.4408 34.3617 255 255 255
-40.867 -52.7366 29.0497 255 255 255
-24.7872 -62.4843 41.1473 255 255 255
-87.367 -60.883 39.4618 255 255 255
-81.6333 9.7624 -51.8672 255 255 255
-40.8588 -54.5934 31.3091 255 255 255
-85.8942 -60.1955 41.8467 255 255 255
-21.1598 30.4572 -77.4365 255 255 255
-44.3754 9.93437 -50.6703 255 255 255
27.3862 -4.89622 10.8925 255 255 255
-88.2393 -59.0849 40.3516 255 255 255
-86.8106 -12.3244 -24.0433 255 255 255
30.1308 -8.22974 14.8714 255 255 255
-65.248 -37.8952 9.57633 255 255 255
-61.7266 -40.5317 12.7883 255 255 255
5.3348 -47.9059 32.1472 255 255 255
27.0302 -12.5868 21.0792 255 255 255
-25.3118 -58.4325 36.4316 255 255 255
-32.3306 -59.21 37.3166 255 255 255
-33.7215 11.7651 -52.7723 255 255 255
61.3426 -19.5085 -9.87528 255 255 255
-48.5124 13.5875 -56.0681 255 255 255
65.1146 71.5141 -117.075 255 255 255
48.7297 70.3379 -111.015 255 255 255
-42.6076 -62.2552 40.6944 255 255 255
-20.9815 12.932 -53.943 255 255 255
-88.3879 -14.015 -21.6152 255 255 255
-33.5277 -57.7311 35.3146 255 255 255
-73.6191 18.7615 -62.2803 255 255 255
-90.48 10.2821 -52.6061 255 255 255
58.1505 -37.1529 8.93697 255 255 255
-32.996 -61.4117 39.9469 255 255 255
-29.2254 22.4458 -66.6496 255 255 255
-80.5278 -20.4972 -13.1864 255 255 255
-86.1248 -60.7228 42.78 255 255 255
-85.27 -61.5951 40.5699 255 255 255
52.4958 -47.2684 22.8712 255 255 255
60.0859 -46.3534 20.932 255 255 255
-72.0217 -56.5304 32.8415 255 255 255
-22.2952 -15.4343 31.3118 255 255 255
-84.6923 -54.7255 33.4877 255 255 255
8.40702 4.48414 27.2605 255 255 255
66.4619 -47.662 22.7694 255 255 255
11.882 -19.8881 36.3924 255 255 255
31.5509 36.7524 -84.3618 255 255 255
45.9393 -35.2286 6.82026 255 255 255
53.1511 -43.6011 17.3921 255 255 255
9.37216 58.7964 -91.8631 255 255 255
-42.1706 15.2436 -57.2918 255 255 255
-35.9908 -52.4495 28.4953 255 255 255
22.0625 -20.1964 31.0191 255 255 255
11.5132 -27.483 40.8358 255 255 255
6.08647 -27.7054 40.808 255 255 255
-25.5989 24.7671 -69.1999 255 255 255
-86.7893 -52.5362 30.5575 255 255 255
5.28851 -47.4691 36.8217 255 255 255
-88.3624 -59.0394 37.5013 255 255 255
-24.1835 -61.5167 39.7489 255 255 255
40.9184 -45.816 20.067 255 255 255
-61.1832 -39.8254 12.526 255 255 255
-22.201 14.8967 -56.4285 255 255 255
64.1412 43.786 -92.5662 255 255 255
37.8764 34.3161 -81.2691 255 255 255
-22.5608 -59.3721 37.2206 255 255 255
18.2855 -17.9442 33.5206 255 255 255
35.9736 -53.0831 29.2344 255 255 255
23.3382 -28.645 31.0731 255 255 255
44.9009 -36.5265 7.69845 255 255 255
9.38659 3.54014 28.077 255 255 255
63.3932 -48.9622 25.6714 255 255 255
58.3882 22.605 -44.2416 255 255 255
59.2489 22.1765 -44.8325 255 255 255
-31.9027 -61.2671 39.0452 255 255 255
59.2489 22.1765 -44.8325 255 255 255
-80.5632 8.18651 -48.9999 255 255 255
60.0759 39.4895 -35.4015 255 255 255
-5.47643 -60.9105 39.0093 255 255 255
52.849 38.072 -86.2546 255 255 255
-40.7288 11.7968 -53.6992 255 255 255
67.4976 -26.3773 -5.31302 255 255 255
-29.0941 -60.3022 38.5984 255 255 255
19.1855 -38.0038 29.7308 255 255 255
-36.6805 -50.8927 26.603 255 255 255
-49.1134 -34.2231 4.42166 255 255 255
-28.5969 -10.0085 19.0875 255 255 255
-33.5479 -46.513 25.1401 255 255 255
65.184 -15.3639 -3.83466 255 255 255
24.4346 -16.2032 25.9765 255 255 255
-22.055 -5.30981 23.917 255 255 255
-33.3365 -28.3866 14.8639 255 255 255
17.7826 -12.5887 30.9669 255 255 255
-4.54712 -14.8665 40.0675 255 255 255
-28.3727 -10.3418 19.015 255 255 255
-80.8208 -44.5889 19.209 255 255 255
-3.74601 -21.6604 39.3333 255 255 255
-22.1385 -34.849 31.7596 255 255 255
-31.5516 10.2773 -50.7404 255 255 255
30.6864 65.5112 -99.5644 255 255 255
-26.8042 30.8704 -77.4779 255 255 255
42.4004 43.848 -94.2167 255 255 255
61.44 38.7017 -87.6171 255 255 255
5.01365 -36.38 39.4149 255 255 255
-8.83762 -47.5271 37.3487 255 255 255
-38.7326 -59.0048 37.0966 255 255 255
-83.878 15.2276 -58.5091 255 255 255
-19.9964 -23.0531 35.5435 255 255 255
6.41505 -26.192 39.9242 255 255 255
-29.9372 10.196 -50.8185 255 255 255
23.2062 -6.72825 19.2446 255 255 255
37.8721 38.2699 -85.6322 255 255 255
37.412 36.9211 -87.7609 255 255 255
22.0658 18.981 -61.2316 255 255 255
-44.4408 -8.72088 -26.9319 255 255 255
66.9823 41.6882 -90.9136 255 255 255
21.8751 65.5028 -94.4169 255 255 255
42.1493 -46.189 21.1195 255 255 255
0.712579 -62.9156 42.3495 255 255 255
61.1772 46.2915 -97.0336 255 255 255
25.8734 47.9221 -98.1114 255 255 255
24.4586 36.7956 -84.2557 255 255 255
42.0318 22.1584 -65.1261 255 255 255
-45.736 -8.85348 -26.8895 255 255 255
49.0192 -36.0202 8.4055 255 255 255
-45.8586 -9.24378 -26.4506 255 255 255
61.1836 32.5798 -78.2705 255 255 255
-22.4734 12.8741 -53.9766 255 255 255
42.6445 -49.1198 24.156 255 255 255
50.1999 51.5065 -104.374 255 255 255
-16.4946 -24.623 37.0601 255 255 255
46.0418 -50.5818 25.4441 255 255 255
38.6694 17.3339 -60.2122 255 255 255
35.0874 35.1 -81.4312 255 255 255
-22.2223 10.6954 -51.141 255 255 255
-87.6438 -12.4234 -21.988 255 255 255
45.0065 -43.3054 16.505 255 255 255
60.3542 29.4355 -39.6281 255 255 255
22.8907 42.8302 -92.4302 255 255 255
-2.26042 -61.13 39.5949 255 255 255
-47.4972 -38.0723 9.85109 255 255 255
-19.5639 -2.61904 25.4354 255 255 255
-6.05122 -43.185 34.7427 255 255 255
-32.0984 24.685 -69.099 255 255 255
-29.4173 -10.4017 19.0286 255 255 255
45.8417 -51.0113 27.4037 255 255 255
-27.1921 -38.2439 22.389 255 255 255
58.4032 20.9262 -48.4897 255 255 255
58.0574 15.3962 -52.0313 255 255 255
14.738 -26.6309 39.3073 255 255 255
-40.4428 -58.4077 36.2475 255 255 255
-28.1743 -60.6449 38.9966 255 255 255
59.1661 19.7995 -46.3976 255 255 255
-28.6213 -60.4515 39.1039 255 255 255
60.5054 17.3682 -44.6429 255 255 255
56.96 13.4623 -50.4251 255 255 255
66.243 46.4132 -96.1914 255 255 255
67.8405 -43.3418 18.2823 255 255 255
34.4003 33.2934 -79.7517 255 255 255
-37.6034 -63.1414 42.0225 255 255 255
-110.196 -33.7222 5.4582 255 255 255
3.39476 46.6479 -95.9422 255 255 255
-74.5893 2.92036 -42.551 255 255 255
34.98 66.4293 -103.198 255 255 255
32.9408 10.7187 -50.9507 255 255 255
60.8942 -8.65773 -10.5602 255 255 255
8.35324 -21.4436 38.2934 255 255 255
48.6113 -40.0024 13.7514 255 255 255
20.4481 -15.9269 31.053 255 255 255
64.7579 55.8428 -109.451 255 255 255
-83.1974 4.13599 -44.7033 255 255 255
-71.6048 -7.34534 -29.0345 255 255 255
40.6236 -49.9271 25.0216 255 255 255
43.3558 77.0884 -100.67 255 255 255
-75.5792 8.39086 -49.5569 255 255 255
70.0565 47.3001 -98.7126 255 255 255
0.421669 -63.0417 41.7688 255 255 255
48.4506 -43.9674 17.0443 255 255 255
-48.5797 -10.1942 -24.776 255 255 255
69.1424 68.107 -123.42 255 255 255
36.544 -53.6391 30.3424 255 255 255
4.27638 64.3534 -87.9206 255 255 255
43.4881 37.7871 -85.0124 255 255 255
70.2076 72.2673 -121.083 255 255 255
-50.9735 -6.99378 -29.4527 255 255 255
13.7865 46.2565 -96.2987 255 255 255
40.6292 -41.4642 14.4404 255 255 255
59.2164 -16.3514 -17.136 255 255 255
-39.3385 11.4718 -52.8921 255 255 255
-21.995 -57.8959 35.5857 255 255 255
-42.9292 -62.9057 42.294 255 255 255
65.0191 -45.9878 20.1901 255 255 255
-44.9221 -55.5069 32.1833 255 255 255
25.7986 -40.3341 26.8478 255 255 255
-18.056 20.6699 -63.5636 255 255 255
40.1001 -51.4566 27.5842 255 255 255
-37.509 11.3485 -52.9327 255 255 255
57.4988 50.4736 -103.444 255 255 255
-26.283 -58.5965 36.77 255 255 255
25.5625 14.9027 -56.0311 255 255 255
39.7053 23.3995 -67.3591 255 255 255
-44.2185 13.6355 -55.2659 255 255 255
38.6966 -50.6368 26.2178 255 255 255
-18.3502 11.2898 -51.808 255 255 255
-54.8508 -0.530317 -37.8036 255 255 255
33.8397 30.4371 -76.1559 255 255 255
36.7609 16.0249 -57.7421 255 255 255
2.69934 61.1487 -86.9252 255 255 255
-41.8166 -53.9892 31.1698 255 255 255
63.6256 -43.8933 18.6784 255 255 255
-89.4355 -56.1415 36.2878 255 255 255
60.5422 -42.9387 16.7029 255 255 255
-28.2533 10.3549 -51.086 255 255 255
63.0294 -17.2232 -11.8973 255 255 255
-28.9269 -56.197 33.8891 255 255 255
61.6117 -43.5493 17.5068 255 255 255
-36.6012 5.65651 -45.1967 255 255 255
51.374 4.61904 -40.3575 255 255 255
-43.2181 -56.6193 33.8843 255 255 255
-78.0053 -59.2468 39.4797 255 255 255
48.3621 -48.9964 24.4141 255 255 255
70.5711 69.7024 -122.95 255 255 255
34.5926 -54.8853 31.7312 255 255 255
41.6457 25.063 -69.6164 255 255 255
-69.9791 -1.93018 -35.8617 255 255 255
-22.201 14.8967 -56.4285 255 255 255
-66.7838 -3.09737 -35.4883 255 255 255
51.7359 52.0824 -104.788 255 255 255
65.6387 44.1859 -94.043 255 255 255
-29.81 -7.4891 15.6163 255 255 255
-24.2316 -5.08937 18.0219 255 255 255
30.5652 70.2881 -94.9593 255 255 255
-69.0382 -10.0178 -26.1037 255 255 255
-54.4757 9.26132 -49.6401 255 255 255
32.9568 34.6193 -81.3994 255 255 255
-83.4593 1.98572 -41.7642 255 255 255
-135.77 55.5021 -110.813 255 255 255
45.5903 -41.8819 15.0479 255 255 255
-55.3995 -7.79284 -26.935 255 255 255
-66.5272 -7.31046 -29.714 255 255 255
42.0315 23.1003 -66.9993 255 255 255
-28.3766 -58.2427 36.4144 255 255 255
62.916 48.7552 -100.515 255 255 255
-42.2295 12.9369 -54.3942 255 255 255
-45.2941 10.8615 -52.2982 255 255 255
67.7051 50.2593 -103.321 255 255 255
-71.4835 -55.1495 33.4327 255 255 255
-34.5195 -56.841 34.4614 255 255 255
-52.4692 -6.57772 -29.8484 255 255 255
-41.7275 10.8524 -51.8211 255 255 255
-39.4344 12.2302 -53.6889 255 255 255
53.7648 12.7892 -53.0676 255 255 255
34.045 56.045 -106.514 255 255 255
55.3705 -47.3641 22.3134 255 255 255
66.2788 63.8003 -118.876 255 255 255
-71.1378 -28.2109 -3.64655 255 255 255
-60.4324 -42.6271 15.6723 255 255 255
67.8405 -43.3418 18.2823 255 255 255
-61.3242 -21.2697 -11.3104 255 255 255
-81.9194 -45.8733 20.9166 255 255 255
-49.61 -35.1473 6.70593 255 255 255
60.9244 -46.5519 21.5573 255 255 255
24.6752 34.2963 -81.3252 255 255 255
23.4065 -11.3197 25.0094 255 255 255
-88.2172 -58.0107 38.7917 255 255 255
6.13397 54.7851 -95.1802 255 255 255
62.3888 -48.9631 24.9793 255 255 255
40.3069 -46.8082 21.2505 255 255 255
47.448 -35.5238 6.75736 255 255 255
28.7748 27.9187 -72.7782 255 255 255
-61.0514 -32.693 2.96641 255 255 255
4.57303 24.9601 -68.9697 255 255 255
-49.4434 -9.33745 -26.8508 255 255 255
54.0885 -37.0066 8.77778 255 255 255
31.6908 50.7251 -102.587 255 255 255
-81.8495 -55.6938 34.5516 255 255 255
-49.7225 -36.523 8.5319 255 255 255
-67.6472 -31.2564 0.59832 255 255 255
-1.49939 -31.7427 43.1416 255 255 255
-60.9168 -26.8219 -5.21221 255 255 255
43.2247 -52.962 30.0872 255 255 255
57.7556 19.1219 -49.7019 255 255 255
61.4994 -45.0683 19.1724 255 255 255
-85.1391 -54.5368 33.1105 255 255 255
36.8103 45.6749 -95.1101 255 255 255
-77.499 24.6556 -64.1984 255 255 255
57.0609 -45.7254 19.6759 255 255 255
66.5258 67.9318 -121.927 255 255 255
-51.1151 -32.6017 3.34288 255 255 255
45.2233 39.9953 -89.3304 255 255 255
40.6236 -49.9271 25.0216 255 255 255
0.658713 -59.7836 37.5087 255 255 255
-55.4938 -9.692 -25.997 255 255 255
49.2767 -48.7842 24.0599 255 255 255
37.534 33.0692 -79.7809 255 255 255
19.7464 68.2025 -90.3603 255 255 255
51.1022 -32.6853 2.44699 255 255 255
10.4131 52.4282 -97.1828 255 255 255
52.4319 4.51816 -41.3074 255 255 255
41.9171 -53.2727 29.6542 255 255 255
-60.7289 -41.9196 14.7923 255 255 255
-59.7101 -41.4465 14.3483 255 255 255
-47.9175 -35.0405 6.29545 255 255 255
37.4165 17.8902 -59.6138 255 255 255
-93.8774 -9.11696 -27.8534 255 255 255
61.2093 -42.6828 16.7869 255 255 255
46.3121 -51.0294 26.5049 255 255 255
73.5536 67.9587 -124.002 255 255 255
63.9099 50.3274 -102.413 255 255 255
35.9721 16.1117 -58.2327 255 255 255
13.5259 66.4977 -89.6868 255 255 255
11.8348 62.82 -91.2332 255 255 255
66.7695 -43.5279 18.2442 255 255 255
-55.986 -8.6158 -27.4751 255 255 255
-1.46499 18.5456 -60.7099 255 255 255
-78.5629 -0.285453 -38.7299 255 255 255
-55.0058 -54.034 30.8876 255 255 255
44.231 -47.7668 23.0322 255 255 255
12.5498 -12.1407 35.9177 255 255 255
25.5434 27.5313 -72.9253 255 255 255
-14.6356 1.18835 28.0592 255 255 255
-50.0327 -26.8595 -4.05837 255 255 255
59.9557 -46.0079 20.3075 255 255 255
65.0365 -46.7584 22.5009 255 255 255
48.6404 -47.0336 22.1574 255 255 255
-41.3987 -56.0612 33.0721 255 255 255
53.7474 -34.3775 5.62517 255 255 255
-28.9984 14.8788 -56.787 255 255 255
-91.3278 -44.704 20.6896 255 255 255
-85.6688 -53.5668 32.1904 255 255 255
59.9375 19.0693 -44.7356 255 255 255
40.7307 -47.7221 22.2121 255 255 255
42.9505 -49.5908 24.5998 255 255 255
43.2474 -52.5508 28.7763 255 255 255
-35.4666 -53.7507 30.1571 255 255 255
-33.5516 -44.8155 23.2745 255 255 255
49.097 -43.5454 17.0583 255 255 255
58.4032 20.9262 -48.4897 255 255 255
67.8118 -44.1548 18.724 255 255 255
47.8704 -26.1875 -4.87445 255 255 255
-84.3098 -55.0866 33.989 255 255 255
3.16596 62.2636 -85.9115 255 255 255
46.4769 -41.6301 14.7504 255 255 255
-41.378 -53.6109 30.0382 255 255 255
56.1843 23.6287 -54.0461 255 255 255
43.2868 -49.9573 24.8114 255 255 255
48.4956 -42.0541 15.2945 255 255 255
11.5004 63.7019 -89.5586 255 255 255
41.0951 23.3137 -66.8293 255 255 255
-17.0842 29.5799 -76.431 255 255 255
-135.77 55.5021 -110.813 255 255 255
-54.4137 5.19725 -44.9282 255 255 255
-88.1951 -54.3741 32.9817 255 255 255
-43.3832 11.6404 -52.8195 255 255 255
-95.6807 -6.87216 -30.912 255 255 255
-23.1832 -9.58118 24.1103 255 255 255
-46.7607 34.2732 -75.4499 255 255 255
54.6863 -43.6899 17.8771 255 255 255
39.6451 21.1759 -64.9181 255 255 255
-39.1691 13.7818 -55.5426 255 255 255
56.1116 29.1287 -50.9918 255 255 255
-28.8956 -8.11181 15.8349 255 255 255
-49.5575 38.6718 -70.6382 255 255 255
48.4817 -28.3582 -1.97176 255 255 255
45.8931 -50.9982 26.5447 255 255 255
10.8287 63.9412 -90.1943 255 255 255
-59.7101 -41.4465 14.3483 255 255 255
43.2088 74.279 -101.479 255 255 255
-22.9328 28.3834 -73.2482 255 255 255
30.1308 -8.22974 14.8714 255 255 255
20.8433 15.8291 -57.2556 255 255 255
58.8776 18.9279 -47.5168 255 255 255
52.7948 -44.5917 18.5977 255 255 255
0.582869 48.3537 -97.2753 255 255 255
30.9949 52.2531 -103.94 255 255 255
-48.7037 -24.1454 -7.21559 255 255 255
23.3015 47.6443 -97.9109 255 255 255
57.6166 63.2679 -117.817 255 255 255
29.0557 27.0072 -71.7506 255 255 255
-50.3549 -34.5641 5.20527 255 255 255
-89.772 -56.9979 37.6543 255 255 255
41.9171 -53.2727 29.6542 255 255 255
58.4991 -37.8517 10.077 255 255 255
58.8553 14.8142 -49.7767 255 255 255
-29.358 8.08631 -48.3495 255 255 255
34.4383 47.5039 -98.1822 255 255 255
58.9804 -18.6786 -14.5848 255 255 255
18.0728 -59.0923 36.7649 255 255 255
54.9816 -42.8573 16.5443 255 255 255
24.7722 15.6527 -57.3235 255 255 255
62.4181 -43.1976 17.1911 255 255 255
-53.3113 -1.17894 -36.629 255 255 255
-38.2818 -52.0395 28.22 255 255 255
41.5572 37.0573 -84.6603 255 255 255
-71.8861 -55.0007 33.1072 255 255 255
64.0799 -18.82 -10.281 255 255 255
28.2761 70.664 -93.8967 255 255 255
-81.9087 -53.0991 30.8474 255 255 255
-35.7037 -53.8044 30.4131 255 255 255
29.0403 22.0176 -65.743 255 255 255
61.5263 -48.4855 24.4328 255 255 255
31.7261 9.64473 -48.8948 255 255 255
33.1054 34.0825 -81.5767 255 255 255
46.2314 -44.4674 18.1943 255 255 255
15.1275 -8.98123 33.3025 255 255 255
35.3952 11.8362 -51.3371 255 255 255
-55.5203 -54.1226 30.7924 255 255 255
-67.1421 -10.831 -24.2677 255 255 255
65.838 -16.8478 -3.14933 255 255 255
50.8021 53.6072 -106.336 255 255 255
48.5786 54.6794 -107.521 255 255 255
16.7651 -15.1115 32.5881 255 255 255
52.3927 -40.7481 13.6835 255 255 255
40.0083 -50.4437 25.6405 255 255 255
36.4869 35.0105 -81.9305 255 255 255
54.6348 -46.7469 20.4321 255 255 255
-33.1874 15.5884 -57.8927 255 255 255
